ply
format ascii 1.0
comment Created by CloudCompare v2.12 alpha
comment Created 5/25/2021 6:53 PM
obj_info Generated by CloudCompare!
element vertex 467
property float x
property float y
property float z
property uchar red
property uchar green
property uchar blue
property float scalar_fullwaveIndex
property float scalar_NumberOfReturns
property float scalar_ReturnNumber
property float scalar_GpsTime
property float scalar_Original_cloud_index
end_header
-6588.644531 -1471.524658 -770.041260 0 0 0 662443.000000 1.000000 1.000000 -1221874.375000 1.000000 
-6588.672363 -1471.521851 -727.726013 0 0 0 662444.000000 1.000000 1.000000 -1221874.375000 1.000000 
-6588.702148 -1471.526978 -684.844177 0 0 0 662445.000000 1.000000 1.000000 -1221874.375000 1.000000 
-6588.734863 -1471.541992 -641.330444 0 0 0 662446.000000 1.000000 1.000000 -1221874.375000 1.000000 
-6588.764648 -1471.546753 -597.107727 0 0 0 662447.000000 1.000000 1.000000 -1221874.375000 1.000000 
-6588.782227 -1471.505249 -552.086487 0 0 0 662448.000000 1.000000 1.000000 -1221874.375000 1.000000 
-6588.811523 -1471.507446 -506.221008 0 0 0 662449.000000 1.000000 1.000000 -1221874.375000 1.000000 
-6588.843262 -1471.519531 -459.415527 0 0 0 662450.000000 1.000000 1.000000 -1221874.375000 1.000000 
-6588.875488 -1471.531860 -411.575684 0 0 0 662451.000000 1.000000 1.000000 -1221874.375000 1.000000 
-6588.905273 -1471.537720 -362.600708 0 0 0 662452.000000 1.000000 1.000000 -1221874.375000 1.000000 
-6588.922363 -1471.493652 -312.361389 0 0 0 662453.000000 1.000000 1.000000 -1221874.375000 1.000000 
-6588.955566 -1471.511841 -260.804382 0 0 0 662454.000000 1.000000 1.000000 -1221874.375000 1.000000 
-6588.987305 -1471.523560 -207.770630 0 0 0 662455.000000 1.000000 1.000000 -1221874.375000 1.000000 
-6589.006836 -1471.488403 -153.098694 0 0 0 662456.000000 1.000000 1.000000 -1221874.375000 1.000000 
-6589.040039 -1471.506836 -96.706177 0 0 0 662457.000000 1.000000 1.000000 -1221874.375000 1.000000 
-6589.059082 -1471.470947 -38.359985 0 0 0 662458.000000 1.000000 1.000000 -1221874.375000 1.000000 
-6595.197754 -1494.198975 4.651855 0 0 0 662459.000000 1.000000 1.000000 -1221874.375000 1.000000 
-6613.315430 -1561.493164 12.135986 0 0 0 662460.000000 1.000000 1.000000 -1221874.375000 1.000000 
-6341.716797 -540.850586 -998.839111 0 0 0 662506.000000 7.000000 1.000000 -1221874.375000 1.000000 
-6341.423340 -539.753540 -998.772522 0 0 0 662506.000000 7.000000 2.000000 -1221874.375000 1.000000 
-6340.601563 -536.683472 -998.585876 0 0 0 662506.000000 7.000000 3.000000 -1221874.375000 1.000000 
-6340.044434 -534.603271 -998.459412 0 0 0 662506.000000 7.000000 4.000000 -1221874.375000 1.000000 
-6339.487305 -532.522095 -998.333008 0 0 0 662506.000000 7.000000 5.000000 -1221874.375000 1.000000 
-6338.914551 -530.382202 -998.202881 0 0 0 662506.000000 7.000000 6.000000 -1221874.375000 1.000000 
-6338.360352 -528.312378 -998.077087 0 0 0 662506.000000 7.000000 7.000000 -1221874.375000 1.000000 
-6337.524902 -525.190430 -997.887390 0 0 0 662506.000000 7.000000 7.000000 -1221874.375000 1.000000 
-6337.258789 -524.196289 -997.826904 0 0 0 662506.000000 7.000000 7.000000 -1221874.375000 1.000000 
-6539.188965 -1278.427490 -998.646362 0 0 0 662507.000000 7.000000 1.000000 -1221874.375000 1.000000 
-6538.771484 -1276.868164 -998.510803 0 0 0 662507.000000 7.000000 2.000000 -1221874.375000 1.000000 
-6538.512207 -1275.899414 -998.426575 0 0 0 662507.000000 7.000000 3.000000 -1221874.375000 1.000000 
-6538.229980 -1274.844238 -998.334900 0 0 0 662507.000000 7.000000 4.000000 -1221874.375000 1.000000 
-6537.951660 -1273.803955 -998.244507 0 0 0 662507.000000 7.000000 5.000000 -1221874.375000 1.000000 
-6537.691895 -1272.833496 -998.160095 0 0 0 662507.000000 7.000000 6.000000 -1221874.375000 1.000000 
-6537.273438 -1271.270264 -998.024231 0 0 0 662507.000000 7.000000 7.000000 -1221874.375000 1.000000 
-6641.759277 -1661.533081 -996.799194 0 0 0 662508.000000 1.000000 1.000000 -1221874.375000 1.000000 
-6641.787109 -1661.541992 -961.456970 0 0 0 662509.000000 1.000000 1.000000 -1221874.375000 1.000000 
-6641.812500 -1661.543457 -925.873901 0 0 0 662510.000000 1.000000 1.000000 -1221874.375000 1.000000 
-6641.839844 -1661.552246 -890.004333 0 0 0 662511.000000 1.000000 1.000000 -1221874.375000 1.000000 
-6641.866699 -1661.558716 -853.797180 0 0 0 662512.000000 1.000000 1.000000 -1221874.375000 1.000000 
-6591.044434 -1471.515625 -770.187805 0 0 0 662513.000000 1.000000 1.000000 -1221874.375000 1.000000 
-6591.075195 -1471.524658 -727.892212 0 0 0 662514.000000 1.000000 1.000000 -1221874.375000 1.000000 
-6591.104980 -1471.528442 -685.026917 0 0 0 662515.000000 1.000000 1.000000 -1221874.375000 1.000000 
-6591.134277 -1471.530640 -641.526001 0 0 0 662516.000000 1.000000 1.000000 -1221874.375000 1.000000 
-6591.166504 -1471.545288 -597.323914 0 0 0 662517.000000 1.000000 1.000000 -1221874.375000 1.000000 
-6591.182617 -1471.499146 -552.318481 0 0 0 662518.000000 1.000000 1.000000 -1221874.375000 1.000000 
-6591.213379 -1471.506104 -506.472900 0 0 0 662519.000000 1.000000 1.000000 -1221874.375000 1.000000 
-6591.245605 -1471.519653 -459.686401 0 0 0 662520.000000 1.000000 1.000000 -1221874.375000 1.000000 
-6591.275879 -1471.526855 -411.862915 0 0 0 662521.000000 1.000000 1.000000 -1221874.375000 1.000000 
-6591.308105 -1471.540405 -362.911011 0 0 0 662522.000000 1.000000 1.000000 -1221874.375000 1.000000 
-6591.325684 -1471.499268 -312.693115 0 0 0 662523.000000 1.000000 1.000000 -1221874.375000 1.000000 
-6591.356445 -1471.507446 -261.150696 0 0 0 662524.000000 1.000000 1.000000 -1221874.375000 1.000000 
-6591.387207 -1471.515015 -208.134888 0 0 0 662525.000000 1.000000 1.000000 -1221874.375000 1.000000 
-6591.408691 -1471.488647 -153.489990 0 0 0 662526.000000 1.000000 1.000000 -1221874.375000 1.000000 
-6591.442383 -1471.508545 -97.120728 0 0 0 662527.000000 1.000000 1.000000 -1221874.375000 1.000000 
-6591.459961 -1471.466553 -38.792969 0 0 0 662528.000000 1.000000 1.000000 -1221874.375000 1.000000 
-6597.387695 -1493.540405 4.703003 0 0 0 662529.000000 1.000000 1.000000 -1221874.375000 1.000000 
-6615.573242 -1561.484863 11.686768 0 0 0 662530.000000 1.000000 1.000000 -1221874.375000 1.000000 
-6345.322754 -539.887695 -998.839111 0 0 0 662576.000000 7.000000 1.000000 -1221874.375000 1.000000 
-6345.032227 -538.796021 -998.772766 0 0 0 662576.000000 7.000000 2.000000 -1221874.375000 1.000000 
-6344.213379 -535.718872 -998.585815 0 0 0 662576.000000 7.000000 3.000000 -1221874.375000 1.000000 
-6343.661133 -533.642822 -998.459717 0 0 0 662576.000000 7.000000 4.000000 -1221874.375000 1.000000 
-6343.107422 -531.562866 -998.333313 0 0 0 662576.000000 7.000000 5.000000 -1221874.375000 1.000000 
-6342.536621 -529.417969 -998.203003 0 0 0 662576.000000 7.000000 6.000000 -1221874.375000 1.000000 
-6341.983887 -527.340210 -998.076782 0 0 0 662576.000000 7.000000 7.000000 -1221874.375000 1.000000 
-6341.151855 -524.215210 -997.887024 0 0 0 662576.000000 7.000000 7.000000 -1221874.375000 1.000000 
-6340.891113 -523.234619 -997.827393 0 0 0 662576.000000 7.000000 7.000000 -1221874.375000 1.000000 
-6541.711426 -1277.746460 -998.645691 0 0 0 662577.000000 7.000000 1.000000 -1221874.375000 1.000000 
-6541.299805 -1276.199341 -998.511292 0 0 0 662577.000000 7.000000 2.000000 -1221874.375000 1.000000 
-6541.039551 -1275.220947 -998.426331 0 0 0 662577.000000 7.000000 3.000000 -1221874.375000 1.000000 
-6540.763672 -1274.183716 -998.336182 0 0 0 662577.000000 7.000000 4.000000 -1221874.375000 1.000000 
-6540.483887 -1273.133545 -998.244873 0 0 0 662577.000000 7.000000 5.000000 -1221874.375000 1.000000 
-6540.222656 -1272.151245 -998.159607 0 0 0 662577.000000 7.000000 6.000000 -1221874.375000 1.000000 
-6539.809082 -1270.597412 -998.024536 0 0 0 662577.000000 7.000000 7.000000 -1221874.375000 1.000000 
-6643.864746 -1661.544312 -996.859680 0 0 0 662578.000000 1.000000 1.000000 -1221874.375000 1.000000 
-6643.889160 -1661.542847 -961.530212 0 0 0 662579.000000 1.000000 1.000000 -1221874.375000 1.000000 
-6643.917480 -1661.556030 -925.963013 0 0 0 662580.000000 1.000000 1.000000 -1221874.375000 1.000000 
-6643.941406 -1661.550537 -890.105042 0 0 0 662581.000000 1.000000 1.000000 -1221874.375000 1.000000 
-6643.966797 -1661.552246 -853.911011 0 0 0 662582.000000 1.000000 1.000000 -1221874.375000 1.000000 
-6593.445801 -1471.520142 -770.336792 0 0 0 662583.000000 1.000000 1.000000 -1221874.375000 1.000000 
-6593.475586 -1471.524780 -728.056641 0 0 0 662584.000000 1.000000 1.000000 -1221874.375000 1.000000 
-6593.504395 -1471.525269 -685.207092 0 0 0 662585.000000 1.000000 1.000000 -1221874.375000 1.000000 
-6593.537109 -1471.540649 -641.727478 0 0 0 662586.000000 1.000000 1.000000 -1221874.375000 1.000000 
-6593.566895 -1471.546265 -597.539612 0 0 0 662587.000000 1.000000 1.000000 -1221874.375000 1.000000 
-6593.582031 -1471.495361 -552.549988 0 0 0 662588.000000 1.000000 1.000000 -1221874.375000 1.000000 
-6593.613770 -1471.507813 -506.724487 0 0 0 662589.000000 1.000000 1.000000 -1221874.375000 1.000000 
-6593.645996 -1471.521240 -459.956299 0 0 0 662590.000000 1.000000 1.000000 -1221874.375000 1.000000 
-6593.677734 -1471.531860 -412.153076 0 0 0 662591.000000 1.000000 1.000000 -1221874.375000 1.000000 
-6593.708496 -1471.541504 -363.218384 0 0 0 662592.000000 1.000000 1.000000 -1221874.375000 1.000000 
-6593.725098 -1471.496338 -313.018005 0 0 0 662593.000000 1.000000 1.000000 -1221874.375000 1.000000 
-6593.758301 -1471.514282 -261.501282 0 0 0 662594.000000 1.000000 1.000000 -1221874.375000 1.000000 
-6593.788574 -1471.521118 -208.505920 0 0 0 662595.000000 1.000000 1.000000 -1221874.375000 1.000000 
-6593.808594 -1471.487671 -153.877991 0 0 0 662596.000000 1.000000 1.000000 -1221874.375000 1.000000 
-6593.841797 -1471.505981 -97.529541 0 0 0 662597.000000 1.000000 1.000000 -1221874.375000 1.000000 
-6593.874512 -1471.521118 -39.265869 0 0 0 662598.000000 1.000000 1.000000 -1221874.375000 1.000000 
-6599.575684 -1492.872437 4.763672 0 0 0 662599.000000 1.000000 1.000000 -1221874.375000 1.000000 
-6617.829590 -1561.474854 11.241821 0 0 0 662600.000000 1.000000 1.000000 -1221874.375000 1.000000 
-6348.930176 -538.929810 -998.839111 0 0 0 662646.000000 7.000000 1.000000 -1221874.375000 1.000000 
-6348.641602 -537.840332 -998.772888 0 0 0 662646.000000 7.000000 2.000000 -1221874.375000 1.000000 
-6347.828125 -534.764771 -998.586121 0 0 0 662646.000000 7.000000 3.000000 -1221874.375000 1.000000 
-6347.277832 -532.684082 -998.459778 0 0 0 662646.000000 7.000000 4.000000 -1221874.375000 1.000000 
-6346.726074 -530.598877 -998.333130 0 0 0 662646.000000 7.000000 5.000000 -1221874.375000 1.000000 
-6346.159180 -528.455200 -998.202881 0 0 0 662646.000000 7.000000 6.000000 -1221874.375000 1.000000 
-6345.609375 -526.378296 -998.076782 0 0 0 662646.000000 7.000000 7.000000 -1221874.375000 1.000000 
-6344.783691 -523.256104 -997.887207 0 0 0 662646.000000 7.000000 7.000000 -1221874.375000 1.000000 
-6344.521484 -522.265015 -997.827026 0 0 0 662646.000000 7.000000 7.000000 -1221874.375000 1.000000 
-6544.239258 -1277.084229 -998.646362 0 0 0 662647.000000 7.000000 1.000000 -1221874.375000 1.000000 
-6543.827148 -1275.526367 -998.511108 0 0 0 662647.000000 7.000000 2.000000 -1221874.375000 1.000000 
-6543.565918 -1274.538452 -998.425293 0 0 0 662647.000000 7.000000 3.000000 -1221874.375000 1.000000 
-6543.293457 -1273.510254 -998.335999 0 0 0 662647.000000 7.000000 4.000000 -1221874.375000 1.000000 
-6543.017578 -1272.466431 -998.245300 0 0 0 662647.000000 7.000000 5.000000 -1221874.375000 1.000000 
-6542.755371 -1271.474365 -998.159119 0 0 0 662647.000000 7.000000 6.000000 -1221874.375000 1.000000 
-6542.342285 -1269.914551 -998.023621 0 0 0 662647.000000 7.000000 7.000000 -1221874.375000 1.000000 
-6645.963867 -1661.540161 -996.918091 0 0 0 662648.000000 1.000000 1.000000 -1221874.375000 1.000000 
-6645.988281 -1661.538696 -961.602234 0 0 0 662649.000000 1.000000 1.000000 -1221874.375000 1.000000 
-6646.017090 -1661.551880 -926.048828 0 0 0 662650.000000 1.000000 1.000000 -1221874.375000 1.000000 
-6646.042969 -1661.556641 -890.206604 0 0 0 662651.000000 1.000000 1.000000 -1221874.375000 1.000000 
-6646.068359 -1661.557739 -854.026611 0 0 0 662652.000000 1.000000 1.000000 -1221874.375000 1.000000 
-6595.844238 -1471.519653 -770.483582 0 0 0 662653.000000 1.000000 1.000000 -1221874.375000 1.000000 
-6595.874023 -1471.524414 -728.219788 0 0 0 662654.000000 1.000000 1.000000 -1221874.375000 1.000000 
-6595.902832 -1471.526367 -685.387390 0 0 0 662655.000000 1.000000 1.000000 -1221874.375000 1.000000 
-6595.935547 -1471.540894 -641.924438 0 0 0 662656.000000 1.000000 1.000000 -1221874.375000 1.000000 
-6595.965820 -1471.547852 -597.754272 0 0 0 662657.000000 1.000000 1.000000 -1221874.375000 1.000000 
-6595.980469 -1471.495361 -552.781494 0 0 0 662658.000000 1.000000 1.000000 -1221874.375000 1.000000 
-6596.012207 -1471.506836 -506.973389 0 0 0 662659.000000 1.000000 1.000000 -1221874.375000 1.000000 
-6596.043945 -1471.518677 -460.222595 0 0 0 662660.000000 1.000000 1.000000 -1221874.375000 1.000000 
-6596.074219 -1471.526123 -412.436279 0 0 0 662661.000000 1.000000 1.000000 -1221874.375000 1.000000 
-6596.108887 -1471.549316 -363.527405 0 0 0 662662.000000 1.000000 1.000000 -1221874.375000 1.000000 
-6596.123047 -1471.495117 -313.341797 0 0 0 662663.000000 1.000000 1.000000 -1221874.375000 1.000000 
-6596.157227 -1471.516113 -261.846802 0 0 0 662664.000000 1.000000 1.000000 -1221874.375000 1.000000 
-6596.189453 -1471.530884 -208.877014 0 0 0 662665.000000 1.000000 1.000000 -1221874.375000 1.000000 
-6596.205566 -1471.482544 -154.260803 0 0 0 662666.000000 1.000000 1.000000 -1221874.375000 1.000000 
-6596.238770 -1471.500977 -97.934204 0 0 0 662667.000000 1.000000 1.000000 -1221874.375000 1.000000 
-6596.271484 -1471.516724 -39.693359 0 0 0 662668.000000 1.000000 1.000000 -1221874.375000 1.000000 
-6601.763672 -1492.203369 4.827759 0 0 0 662669.000000 1.000000 1.000000 -1221874.375000 1.000000 
-6619.987305 -1561.099121 11.094360 0 0 0 662670.000000 1.000000 1.000000 -1221874.375000 1.000000 
-6352.537598 -537.972900 -998.838806 0 0 0 662716.000000 7.000000 1.000000 -1221874.375000 1.000000 
-6352.250488 -536.881348 -998.772522 0 0 0 662716.000000 7.000000 2.000000 -1221874.375000 1.000000 
-6351.444824 -533.817749 -998.586487 0 0 0 662716.000000 7.000000 3.000000 -1221874.375000 1.000000 
-6350.895508 -531.728149 -998.459717 0 0 0 662716.000000 7.000000 4.000000 -1221874.375000 1.000000 
-6350.345703 -529.639038 -998.332825 0 0 0 662716.000000 7.000000 5.000000 -1221874.375000 1.000000 
-6349.782227 -527.494751 -998.202698 0 0 0 662716.000000 7.000000 6.000000 -1221874.375000 1.000000 
-6349.234375 -525.412476 -998.076294 0 0 0 662716.000000 7.000000 7.000000 -1221874.375000 1.000000 
-6348.417969 -522.308472 -997.887817 0 0 0 662716.000000 7.000000 7.000000 -1221874.375000 1.000000 
-6348.156738 -521.315430 -997.827515 0 0 0 662716.000000 7.000000 7.000000 -1221874.375000 1.000000 
-6546.765137 -1276.416382 -998.646301 0 0 0 662717.000000 7.000000 1.000000 -1221874.375000 1.000000 
-6546.355469 -1274.858154 -998.510986 0 0 0 662717.000000 7.000000 2.000000 -1221874.375000 1.000000 
-6546.094727 -1273.866211 -998.424866 0 0 0 662717.000000 7.000000 3.000000 -1221874.375000 1.000000 
-6545.821777 -1272.828125 -998.334717 0 0 0 662717.000000 7.000000 4.000000 -1221874.375000 1.000000 
-6545.551758 -1271.801636 -998.245605 0 0 0 662717.000000 7.000000 5.000000 -1221874.375000 1.000000 
-6545.292969 -1270.817993 -998.160217 0 0 0 662717.000000 7.000000 6.000000 -1221874.375000 1.000000 
-6544.878906 -1269.242432 -998.023376 0 0 0 662717.000000 7.000000 7.000000 -1221874.375000 1.000000 
-6648.062500 -1661.539551 -996.976624 0 0 0 662718.000000 1.000000 1.000000 -1221874.375000 1.000000 
-6648.087891 -1661.542358 -961.674866 0 0 0 662719.000000 1.000000 1.000000 -1221874.375000 1.000000 
-6648.112793 -1661.541992 -926.132996 0 0 0 662720.000000 1.000000 1.000000 -1221874.375000 1.000000 
-6648.140625 -1661.552612 -890.305481 0 0 0 662721.000000 1.000000 1.000000 -1221874.375000 1.000000 
-6648.166504 -1661.555664 -854.139893 0 0 0 662722.000000 1.000000 1.000000 -1221874.375000 1.000000 
-6598.237305 -1471.505737 -770.626221 0 0 0 662723.000000 1.000000 1.000000 -1221874.375000 1.000000 
-6598.267090 -1471.511841 -728.378723 0 0 0 662724.000000 1.000000 1.000000 -1221874.375000 1.000000 
-6598.299805 -1471.526978 -685.566467 0 0 0 662725.000000 1.000000 1.000000 -1221874.375000 1.000000 
-6598.332520 -1471.543701 -642.121033 0 0 0 662726.000000 1.000000 1.000000 -1221874.375000 1.000000 
-6598.360840 -1471.541992 -597.964783 0 0 0 662727.000000 1.000000 1.000000 -1221874.375000 1.000000 
-6598.379883 -1471.505737 -553.015625 0 0 0 662728.000000 1.000000 1.000000 -1221874.375000 1.000000 
-6598.408203 -1471.506104 -507.220825 0 0 0 662729.000000 1.000000 1.000000 -1221874.375000 1.000000 
-6598.440918 -1471.521851 -460.489685 0 0 0 662730.000000 1.000000 1.000000 -1221874.375000 1.000000 
-6598.472168 -1471.531738 -412.723328 0 0 0 662731.000000 1.000000 1.000000 -1221874.375000 1.000000 
-6598.501953 -1471.536865 -363.824097 0 0 0 662732.000000 1.000000 1.000000 -1221874.375000 1.000000 
-6598.519043 -1471.493164 -313.663086 0 0 0 662733.000000 1.000000 1.000000 -1221874.375000 1.000000 
-6598.551270 -1471.507080 -262.183777 0 0 0 662734.000000 1.000000 1.000000 -1221874.375000 1.000000 
-6598.583984 -1471.524292 -209.235596 0 0 0 662735.000000 1.000000 1.000000 -1221874.375000 1.000000 
-6598.603027 -1471.487061 -154.647583 0 0 0 662736.000000 1.000000 1.000000 -1221874.375000 1.000000 
-6598.636719 -1471.506958 -98.343750 0 0 0 662737.000000 1.000000 1.000000 -1221874.375000 1.000000 
-6598.668945 -1471.520996 -40.124512 0 0 0 662738.000000 1.000000 1.000000 -1221874.375000 1.000000 
-6603.956543 -1491.551758 4.880737 0 0 0 662739.000000 1.000000 1.000000 -1221874.375000 1.000000 
-6622.071289 -1560.445190 11.173584 0 0 0 662740.000000 1.000000 1.000000 -1221874.375000 1.000000 
-6356.151855 -537.041870 -998.839722 0 0 0 662786.000000 7.000000 1.000000 -1221874.375000 1.000000 
-6355.861328 -535.930908 -998.772278 0 0 0 662786.000000 7.000000 2.000000 -1221874.375000 1.000000 
-6355.059082 -532.862061 -998.586121 0 0 0 662786.000000 7.000000 3.000000 -1221874.375000 1.000000 
-6354.512695 -530.771606 -998.459229 0 0 0 662786.000000 7.000000 4.000000 -1221874.375000 1.000000 
-6353.970215 -528.695679 -998.333191 0 0 0 662786.000000 7.000000 5.000000 -1221874.375000 1.000000 
-6353.406250 -526.540039 -998.202393 0 0 0 662786.000000 7.000000 6.000000 -1221874.375000 1.000000 
-6352.865234 -524.469238 -998.076782 0 0 0 662786.000000 7.000000 7.000000 -1221874.375000 1.000000 
-6352.047363 -521.341064 -997.886902 0 0 0 662786.000000 7.000000 7.000000 -1221874.375000 1.000000 
-6351.789551 -520.354004 -997.827026 0 0 0 662786.000000 7.000000 7.000000 -1221874.375000 1.000000 
-6549.294434 -1275.761108 -998.646912 0 0 0 662787.000000 7.000000 1.000000 -1221874.375000 1.000000 
-6548.885742 -1274.197021 -998.511169 0 0 0 662787.000000 7.000000 2.000000 -1221874.375000 1.000000 
-6548.627930 -1273.211304 -998.425598 0 0 0 662787.000000 7.000000 3.000000 -1221874.375000 1.000000 
-6548.354492 -1272.165771 -998.334900 0 0 0 662787.000000 7.000000 4.000000 -1221874.375000 1.000000 
-6548.083984 -1271.129517 -998.244873 0 0 0 662787.000000 7.000000 5.000000 -1221874.375000 1.000000 
-6547.827637 -1270.149048 -998.159790 0 0 0 662787.000000 7.000000 6.000000 -1221874.375000 1.000000 
-6547.417480 -1268.581299 -998.023804 0 0 0 662787.000000 7.000000 7.000000 -1221874.375000 1.000000 
-6650.160156 -1661.541260 -997.034912 0 0 0 662788.000000 1.000000 1.000000 -1221874.375000 1.000000 
-6650.185547 -1661.543579 -961.746765 0 0 0 662789.000000 1.000000 1.000000 -1221874.375000 1.000000 
-6650.213379 -1661.554810 -926.220520 0 0 0 662790.000000 1.000000 1.000000 -1221874.375000 1.000000 
-6650.237305 -1661.550049 -890.404175 0 0 0 662791.000000 1.000000 1.000000 -1221874.375000 1.000000 
-6650.262207 -1661.549561 -854.251587 0 0 0 662792.000000 1.000000 1.000000 -1221874.375000 1.000000 
-6600.633301 -1471.510742 -770.772522 0 0 0 662793.000000 1.000000 1.000000 -1221874.375000 1.000000 
-6600.665039 -1471.523193 -728.543091 0 0 0 662794.000000 1.000000 1.000000 -1221874.375000 1.000000 
-6600.694336 -1471.526489 -685.744019 0 0 0 662795.000000 1.000000 1.000000 -1221874.375000 1.000000 
-6600.723633 -1471.529907 -642.310791 0 0 0 662796.000000 1.000000 1.000000 -1221874.375000 1.000000 
-6600.753906 -1471.537231 -598.174377 0 0 0 662797.000000 1.000000 1.000000 -1221874.375000 1.000000 
-6600.771484 -1471.494751 -553.239929 0 0 0 662798.000000 1.000000 1.000000 -1221874.375000 1.000000 
-6600.803711 -1471.508789 -507.468079 0 0 0 662799.000000 1.000000 1.000000 -1221874.375000 1.000000 
-6600.833496 -1471.513062 -460.749878 0 0 0 662800.000000 1.000000 1.000000 -1221874.375000 1.000000 
-6600.864746 -1471.524048 -413.001892 0 0 0 662801.000000 1.000000 1.000000 -1221874.375000 1.000000 
-6600.895996 -1471.535278 -364.124512 0 0 0 662802.000000 1.000000 1.000000 -1221874.375000 1.000000 
-6600.915527 -1471.501343 -313.987976 0 0 0 662803.000000 1.000000 1.000000 -1221874.375000 1.000000 
-6600.945801 -1471.507080 -262.523987 0 0 0 662804.000000 1.000000 1.000000 -1221874.375000 1.000000 
-6600.979492 -1471.526978 -209.597778 0 0 0 662805.000000 1.000000 1.000000 -1221874.375000 1.000000 
-6600.998047 -1471.489258 -155.030273 0 0 0 662806.000000 1.000000 1.000000 -1221874.375000 1.000000 
-6601.028320 -1471.495850 -98.739014 0 0 0 662807.000000 1.000000 1.000000 -1221874.375000 1.000000 
-6601.061523 -1471.514404 -40.544922 0 0 0 662808.000000 1.000000 1.000000 -1221874.375000 1.000000 
-6606.147461 -1490.892334 4.942261 0 0 0 662809.000000 1.000000 1.000000 -1221874.375000 1.000000 
-6624.165527 -1559.828125 11.225586 0 0 0 662810.000000 1.000000 1.000000 -1221874.375000 1.000000 
-6359.761719 -536.093872 -998.839294 0 0 0 662856.000000 7.000000 1.000000 -1221874.375000 1.000000 
-6359.474121 -534.988281 -998.772217 0 0 0 662856.000000 7.000000 2.000000 -1221874.375000 1.000000 
-6358.678223 -531.924316 -998.586365 0 0 0 662856.000000 7.000000 3.000000 -1221874.375000 1.000000 
-6358.135254 -529.834473 -998.459595 0 0 0 662856.000000 7.000000 4.000000 -1221874.375000 1.000000 
-6357.592773 -527.747681 -998.333008 0 0 0 662856.000000 7.000000 5.000000 -1221874.375000 1.000000 
-6357.036133 -525.604980 -998.203003 0 0 0 662856.000000 7.000000 6.000000 -1221874.375000 1.000000 
-6356.495605 -523.524170 -998.076782 0 0 0 662856.000000 7.000000 7.000000 -1221874.375000 1.000000 
-6355.683594 -520.399902 -997.887268 0 0 0 662856.000000 7.000000 7.000000 -1221874.375000 1.000000 
-6355.426270 -519.409668 -997.827209 0 0 0 662856.000000 7.000000 7.000000 -1221874.375000 1.000000 
-6551.821289 -1275.096680 -998.646362 0 0 0 662857.000000 7.000000 1.000000 -1221874.375000 1.000000 
-6551.415527 -1273.534912 -998.510925 0 0 0 662857.000000 7.000000 2.000000 -1221874.375000 1.000000 
-6551.157715 -1272.542603 -998.424805 0 0 0 662857.000000 7.000000 3.000000 -1221874.375000 1.000000 
-6550.887695 -1271.504028 -998.334717 0 0 0 662857.000000 7.000000 4.000000 -1221874.375000 1.000000 
-6550.633789 -1270.526978 -998.250000 0 0 0 662857.000000 7.000000 5.000000 -1221874.375000 1.000000 
-6550.364258 -1269.488647 -998.159912 0 0 0 662857.000000 7.000000 6.000000 -1221874.375000 1.000000 
-6549.821289 -1267.399048 -997.978638 0 0 0 662857.000000 7.000000 7.000000 -1221874.375000 1.000000 
-6652.253906 -1661.535645 -997.092102 0 0 0 662858.000000 1.000000 1.000000 -1221874.375000 1.000000 
-6652.282227 -1661.547852 -961.818604 0 0 0 662859.000000 1.000000 1.000000 -1221874.375000 1.000000 
-6652.309082 -1661.555542 -926.305420 0 0 0 662860.000000 1.000000 1.000000 -1221874.375000 1.000000 
-6652.332520 -1661.549194 -890.502502 0 0 0 662861.000000 1.000000 1.000000 -1221874.375000 1.000000 
-6652.358398 -1661.552979 -854.364624 0 0 0 662862.000000 1.000000 1.000000 -1221874.375000 1.000000 
-6603.027832 -1471.516846 -770.918213 0 0 0 662863.000000 1.000000 1.000000 -1221874.375000 1.000000 
-6603.058105 -1471.524658 -728.703796 0 0 0 662864.000000 1.000000 1.000000 -1221874.375000 1.000000 
-6603.085938 -1471.521851 -685.919189 0 0 0 662865.000000 1.000000 1.000000 -1221874.375000 1.000000 
-6603.118164 -1471.536011 -642.505981 0 0 0 662866.000000 1.000000 1.000000 -1221874.375000 1.000000 
-6603.149414 -1471.545898 -598.387573 0 0 0 662867.000000 1.000000 1.000000 -1221874.375000 1.000000 
-6603.165527 -1471.499268 -553.468811 0 0 0 662868.000000 1.000000 1.000000 -1221874.375000 1.000000 
-6603.195801 -1471.506836 -507.711792 0 0 0 662869.000000 1.000000 1.000000 -1221874.375000 1.000000 
-6603.229492 -1471.525513 -461.017883 0 0 0 662870.000000 1.000000 1.000000 -1221874.375000 1.000000 
-6603.261230 -1471.537842 -413.289185 0 0 0 662871.000000 1.000000 1.000000 -1221874.375000 1.000000 
-6603.289551 -1471.537354 -364.424683 0 0 0 662872.000000 1.000000 1.000000 -1221874.375000 1.000000 
-6603.309082 -1471.504028 -314.307800 0 0 0 662873.000000 1.000000 1.000000 -1221874.375000 1.000000 
-6603.339355 -1471.509888 -262.863586 0 0 0 662874.000000 1.000000 1.000000 -1221874.375000 1.000000 
-6603.370117 -1471.520142 -209.951721 0 0 0 662875.000000 1.000000 1.000000 -1221874.375000 1.000000 
-6603.391602 -1471.493042 -155.411682 0 0 0 662876.000000 1.000000 1.000000 -1221874.375000 1.000000 
-6603.423340 -1471.504395 -99.145264 0 0 0 662877.000000 1.000000 1.000000 -1221874.375000 1.000000 
-6603.454102 -1471.514038 -40.967163 0 0 0 662878.000000 1.000000 1.000000 -1221874.375000 1.000000 
-6608.341797 -1490.245483 4.996460 0 0 0 662879.000000 1.000000 1.000000 -1221874.375000 1.000000 
-6626.258789 -1559.206787 11.283447 0 0 0 662880.000000 1.000000 1.000000 -1221874.375000 1.000000 
-6363.375488 -535.162109 -998.839600 0 0 0 662926.000000 7.000000 1.000000 -1221874.375000 1.000000 
-6363.090332 -534.056519 -998.772522 0 0 0 662926.000000 7.000000 2.000000 -1221874.375000 1.000000 
-6362.299805 -530.996338 -998.587036 0 0 0 662926.000000 7.000000 3.000000 -1221874.375000 1.000000 
-6361.757324 -528.895264 -998.459595 0 0 0 662926.000000 7.000000 4.000000 -1221874.375000 1.000000 
-6361.219727 -526.814697 -998.333374 0 0 0 662926.000000 7.000000 5.000000 -1221874.375000 1.000000 
-6360.662598 -524.656982 -998.202576 0 0 0 662926.000000 7.000000 6.000000 -1221874.375000 1.000000 
-6360.127441 -522.585083 -998.076904 0 0 0 662926.000000 7.000000 7.000000 -1221874.375000 1.000000 
-6359.316895 -519.447876 -997.886719 0 0 0 662926.000000 7.000000 7.000000 -1221874.375000 1.000000 
-6359.063965 -518.468872 -997.827332 0 0 0 662926.000000 7.000000 7.000000 -1221874.375000 1.000000 
-6554.349609 -1274.436768 -998.645996 0 0 0 662927.000000 7.000000 1.000000 -1221874.375000 1.000000 
-6553.946777 -1272.877808 -998.510803 0 0 0 662927.000000 7.000000 2.000000 -1221874.375000 1.000000 
-6553.692871 -1271.893921 -998.425476 0 0 0 662927.000000 7.000000 3.000000 -1221874.375000 1.000000 
-6553.423828 -1270.852417 -998.335205 0 0 0 662927.000000 7.000000 4.000000 -1221874.375000 1.000000 
-6553.156250 -1269.817749 -998.245422 0 0 0 662927.000000 7.000000 5.000000 -1221874.375000 1.000000 
-6552.901367 -1268.829224 -998.159729 0 0 0 662927.000000 7.000000 6.000000 -1221874.375000 1.000000 
-6552.498535 -1267.269165 -998.024414 0 0 0 662927.000000 7.000000 7.000000 -1221874.375000 1.000000 
-6654.347168 -1661.532471 -997.149109 0 0 0 662928.000000 1.000000 1.000000 -1221874.375000 1.000000 
-6654.373047 -1661.535522 -961.887695 0 0 0 662929.000000 1.000000 1.000000 -1221874.375000 1.000000 
-6654.400879 -1661.548096 -926.388489 0 0 0 662930.000000 1.000000 1.000000 -1221874.375000 1.000000 
-6654.425781 -1661.546997 -890.599915 0 0 0 662931.000000 1.000000 1.000000 -1221874.375000 1.000000 
-6654.451172 -1661.548218 -854.475098 0 0 0 662932.000000 1.000000 1.000000 -1221874.375000 1.000000 
-6605.417969 -1471.514282 -771.060791 0 0 0 662933.000000 1.000000 1.000000 -1221874.375000 1.000000 
-6605.446777 -1471.515503 -728.860474 0 0 0 662934.000000 1.000000 1.000000 -1221874.375000 1.000000 
-6605.479004 -1471.528687 -686.096741 0 0 0 662935.000000 1.000000 1.000000 -1221874.375000 1.000000 
-6605.506836 -1471.526855 -642.694885 0 0 0 662936.000000 1.000000 1.000000 -1221874.375000 1.000000 
-6605.540039 -1471.545288 -598.596008 0 0 0 662937.000000 1.000000 1.000000 -1221874.375000 1.000000 
-6605.555664 -1471.496582 -553.693420 0 0 0 662938.000000 1.000000 1.000000 -1221874.375000 1.000000 
-6605.588379 -1471.511597 -507.956909 0 0 0 662939.000000 1.000000 1.000000 -1221874.375000 1.000000 
-6605.617188 -1471.514404 -461.273621 0 0 0 662940.000000 1.000000 1.000000 -1221874.375000 1.000000 
-6605.649902 -1471.530151 -413.564270 0 0 0 662941.000000 1.000000 1.000000 -1221874.375000 1.000000 
-6605.680664 -1471.538208 -364.722473 0 0 0 662942.000000 1.000000 1.000000 -1221874.375000 1.000000 
-6605.698242 -1471.496948 -314.620178 0 0 0 662943.000000 1.000000 1.000000 -1221874.375000 1.000000 
-6605.730469 -1471.511353 -263.200195 0 0 0 662944.000000 1.000000 1.000000 -1221874.375000 1.000000 
-6605.765137 -1471.534790 -210.316528 0 0 0 662945.000000 1.000000 1.000000 -1221874.375000 1.000000 
-6605.778809 -1471.478638 -155.778809 0 0 0 662946.000000 1.000000 1.000000 -1221874.375000 1.000000 
-6605.812012 -1471.496582 -99.537720 0 0 0 662947.000000 1.000000 1.000000 -1221874.375000 1.000000 
-6605.846191 -1471.518921 -41.390503 0 0 0 662948.000000 1.000000 1.000000 -1221874.375000 1.000000 
-6610.535645 -1489.595093 5.055908 0 0 0 662949.000000 1.000000 1.000000 -1221874.375000 1.000000 
-6628.351563 -1558.584229 11.344849 0 0 0 662950.000000 1.000000 1.000000 -1221874.375000 1.000000 
-6366.989258 -534.228394 -998.839417 0 0 0 662996.000000 7.000000 1.000000 -1221874.375000 1.000000 
-6366.704590 -533.119873 -998.772217 0 0 0 662996.000000 7.000000 2.000000 -1221874.375000 1.000000 
-6365.915527 -530.044922 -998.585815 0 0 0 662996.000000 7.000000 3.000000 -1221874.375000 1.000000 
-6365.382813 -527.970459 -998.460083 0 0 0 662996.000000 7.000000 4.000000 -1221874.375000 1.000000 
-6364.846191 -525.880493 -998.333374 0 0 0 662996.000000 7.000000 5.000000 -1221874.375000 1.000000 
-6364.293457 -523.727905 -998.202881 0 0 0 662996.000000 7.000000 6.000000 -1221874.375000 1.000000 
-6363.758789 -521.644165 -998.076599 0 0 0 662996.000000 7.000000 7.000000 -1221874.375000 1.000000 
-6362.954102 -518.510742 -997.886719 0 0 0 662996.000000 7.000000 7.000000 -1221874.375000 1.000000 
-6362.673340 -517.416504 -997.820313 0 0 0 662996.000000 7.000000 7.000000 -1221874.375000 1.000000 
-6556.880371 -1273.787964 -998.646301 0 0 0 662997.000000 7.000000 1.000000 -1221874.375000 1.000000 
-6556.475586 -1272.210205 -998.509521 0 0 0 662997.000000 7.000000 2.000000 -1221874.375000 1.000000 
-6556.226563 -1271.241455 -998.425476 0 0 0 662997.000000 7.000000 3.000000 -1221874.375000 1.000000 
-6555.960449 -1270.203369 -998.335510 0 0 0 662997.000000 7.000000 4.000000 -1221874.375000 1.000000 
-6555.707520 -1269.218994 -998.250183 0 0 0 662997.000000 7.000000 5.000000 -1221874.375000 1.000000 
-6555.437988 -1268.168823 -998.159119 0 0 0 662997.000000 7.000000 6.000000 -1221874.375000 1.000000 
-6555.039063 -1266.614624 -998.024414 0 0 0 662997.000000 7.000000 7.000000 -1221874.375000 1.000000 
-6656.439453 -1661.531860 -997.206116 0 0 0 662998.000000 1.000000 1.000000 -1221874.375000 1.000000 
-6656.463867 -1661.530640 -961.957397 0 0 0 662999.000000 1.000000 1.000000 -1221874.375000 1.000000 
-6656.491211 -1661.538696 -926.470703 0 0 0 663000.000000 1.000000 1.000000 -1221874.375000 1.000000 
-6656.517578 -1661.545898 -890.696899 0 0 0 663001.000000 1.000000 1.000000 -1221874.375000 1.000000 
-6656.545410 -1661.556030 -854.587708 0 0 0 663002.000000 1.000000 1.000000 -1221874.375000 1.000000 
-6607.808105 -1471.516846 -771.203674 0 0 0 663003.000000 1.000000 1.000000 -1221874.375000 1.000000 
-6607.836914 -1471.518799 -729.019592 0 0 0 663004.000000 1.000000 1.000000 -1221874.375000 1.000000 
-6607.865723 -1471.518677 -686.268066 0 0 0 663005.000000 1.000000 1.000000 -1221874.375000 1.000000 
-6607.899414 -1471.539917 -642.889893 0 0 0 663006.000000 1.000000 1.000000 -1221874.375000 1.000000 
-6607.928711 -1471.542480 -598.802307 0 0 0 663007.000000 1.000000 1.000000 -1221874.375000 1.000000 
-6607.959473 -1471.552612 -553.939514 0 0 0 663008.000000 1.000000 1.000000 -1221874.375000 1.000000 
-6607.975586 -1471.503662 -508.195129 0 0 0 663009.000000 1.000000 1.000000 -1221874.375000 1.000000 
-6608.008301 -1471.520264 -461.535278 0 0 0 663010.000000 1.000000 1.000000 -1221874.375000 1.000000 
-6608.038574 -1471.527588 -413.840088 0 0 0 663011.000000 1.000000 1.000000 -1221874.375000 1.000000 
-6608.070313 -1471.540405 -365.018982 0 0 0 663012.000000 1.000000 1.000000 -1221874.375000 1.000000 
-6608.088379 -1471.501465 -314.937012 0 0 0 663013.000000 1.000000 1.000000 -1221874.375000 1.000000 
-6608.117676 -1471.504883 -263.530090 0 0 0 663014.000000 1.000000 1.000000 -1221874.375000 1.000000 
-6608.148438 -1471.513794 -210.657227 0 0 0 663015.000000 1.000000 1.000000 -1221874.375000 1.000000 
-6608.167969 -1471.477905 -156.152405 0 0 0 663016.000000 1.000000 1.000000 -1221874.375000 1.000000 
-6608.203125 -1471.504761 -99.938599 0 0 0 663017.000000 1.000000 1.000000 -1221874.375000 1.000000 
-6608.232910 -1471.510742 -41.801758 0 0 0 663018.000000 1.000000 1.000000 -1221874.375000 1.000000 
-6612.731445 -1488.952148 5.112061 0 0 0 663019.000000 1.000000 1.000000 -1221874.375000 1.000000 
-6630.449219 -1557.977661 11.395752 0 0 0 663020.000000 1.000000 1.000000 -1221874.375000 1.000000 
-6370.601563 -533.290771 -998.838623 0 0 0 663066.000000 7.000000 1.000000 -1221874.375000 1.000000 
-6370.322266 -532.195068 -998.772217 0 0 0 663066.000000 7.000000 2.000000 -1221874.375000 1.000000 
-6369.539551 -529.127319 -998.586365 0 0 0 663066.000000 7.000000 3.000000 -1221874.375000 1.000000 
-6369.006836 -527.040161 -998.459900 0 0 0 663066.000000 7.000000 4.000000 -1221874.375000 1.000000 
-6368.474609 -524.954468 -998.333496 0 0 0 663066.000000 7.000000 5.000000 -1221874.375000 1.000000 
-6367.927734 -522.809692 -998.203613 0 0 0 663066.000000 7.000000 6.000000 -1221874.375000 1.000000 
-6367.392578 -520.713379 -998.076599 0 0 0 663066.000000 7.000000 7.000000 -1221874.375000 1.000000 
-6366.590820 -517.571289 -997.886169 0 0 0 663066.000000 7.000000 7.000000 -1221874.375000 1.000000 
-6366.343262 -516.600464 -997.827332 0 0 0 663066.000000 7.000000 7.000000 -1221874.375000 1.000000 
-6559.414063 -1273.149658 -998.647095 0 0 0 663067.000000 7.000000 1.000000 -1221874.375000 1.000000 
-6559.013672 -1271.581177 -998.511169 0 0 0 663067.000000 7.000000 2.000000 -1221874.375000 1.000000 
-6558.760254 -1270.586548 -998.424988 0 0 0 663067.000000 7.000000 3.000000 -1221874.375000 1.000000 
-6558.496582 -1269.553589 -998.335388 0 0 0 663067.000000 7.000000 4.000000 -1221874.375000 1.000000 
-6558.229980 -1268.507813 -998.244812 0 0 0 663067.000000 7.000000 5.000000 -1221874.375000 1.000000 
-6557.976563 -1267.515259 -998.158813 0 0 0 663067.000000 7.000000 6.000000 -1221874.375000 1.000000 
-6557.446289 -1265.436157 -997.978638 0 0 0 663067.000000 7.000000 7.000000 -1221874.375000 1.000000 
-6658.531738 -1661.537109 -997.263428 0 0 0 663068.000000 1.000000 1.000000 -1221874.375000 1.000000 
-6658.556641 -1661.537720 -962.028198 0 0 0 663069.000000 1.000000 1.000000 -1221874.375000 1.000000 
-6658.583984 -1661.548218 -926.555420 0 0 0 663070.000000 1.000000 1.000000 -1221874.375000 1.000000 
-6658.610840 -1661.555786 -890.795532 0 0 0 663071.000000 1.000000 1.000000 -1221874.375000 1.000000 
-6658.634766 -1661.552124 -854.697021 0 0 0 663072.000000 1.000000 1.000000 -1221874.375000 1.000000 
-6610.193848 -1471.508545 -771.343079 0 0 0 663073.000000 1.000000 1.000000 -1221874.375000 1.000000 
-6610.223145 -1471.513306 -729.175293 0 0 0 663074.000000 1.000000 1.000000 -1221874.375000 1.000000 
-6610.254883 -1471.526855 -686.443726 0 0 0 663075.000000 1.000000 1.000000 -1221874.375000 1.000000 
-6610.286133 -1471.536377 -643.078186 0 0 0 663076.000000 1.000000 1.000000 -1221874.375000 1.000000 
-6610.315918 -1471.542847 -599.008484 0 0 0 663077.000000 1.000000 1.000000 -1221874.375000 1.000000 
-6610.346191 -1471.549194 -554.160889 0 0 0 663078.000000 1.000000 1.000000 -1221874.375000 1.000000 
-6610.363281 -1471.505737 -508.435791 0 0 0 663079.000000 1.000000 1.000000 -1221874.375000 1.000000 
-6610.395508 -1471.519775 -461.792480 0 0 0 663080.000000 1.000000 1.000000 -1221874.375000 1.000000 
-6610.426758 -1471.531738 -414.117310 0 0 0 663081.000000 1.000000 1.000000 -1221874.375000 1.000000 
-6610.457520 -1471.541748 -365.313171 0 0 0 663082.000000 1.000000 1.000000 -1221874.375000 1.000000 
-6610.477051 -1471.505249 -315.251282 0 0 0 663083.000000 1.000000 1.000000 -1221874.375000 1.000000 
-6610.506836 -1471.510376 -263.864807 0 0 0 663084.000000 1.000000 1.000000 -1221874.375000 1.000000 
-6610.538574 -1471.524536 -211.015015 0 0 0 663085.000000 1.000000 1.000000 -1221874.375000 1.000000 
-6610.557129 -1471.485107 -156.528809 0 0 0 663086.000000 1.000000 1.000000 -1221874.375000 1.000000 
-6610.588867 -1471.499634 -100.327759 0 0 0 663087.000000 1.000000 1.000000 -1221874.375000 1.000000 
-6610.620117 -1471.510254 -42.215820 0 0 0 663088.000000 1.000000 1.000000 -1221874.375000 1.000000 
-6614.925781 -1488.301758 5.176270 0 0 0 663089.000000 1.000000 1.000000 -1221874.375000 1.000000 
-6632.543457 -1557.357910 11.459473 0 0 0 663090.000000 1.000000 1.000000 -1221874.375000 1.000000 
-6374.221680 -532.382080 -998.839294 0 0 0 663136.000000 7.000000 1.000000 -1221874.375000 1.000000 
-6373.942383 -531.281372 -998.772705 0 0 0 663136.000000 7.000000 2.000000 -1221874.375000 1.000000 
-6373.163086 -528.206543 -998.586365 0 0 0 663136.000000 7.000000 3.000000 -1221874.375000 1.000000 
-6372.631836 -526.112427 -998.459595 0 0 0 663136.000000 7.000000 4.000000 -1221874.375000 1.000000 
-6372.101563 -524.021851 -998.332886 0 0 0 663136.000000 7.000000 5.000000 -1221874.375000 1.000000 
-6371.558594 -521.880005 -998.203186 0 0 0 663136.000000 7.000000 6.000000 -1221874.375000 1.000000 
-6371.028320 -519.789429 -998.076599 0 0 0 663136.000000 7.000000 7.000000 -1221874.375000 1.000000 
-6370.233887 -516.656738 -997.886902 0 0 0 663136.000000 7.000000 7.000000 -1221874.375000 1.000000 
-6369.985840 -515.678345 -997.827576 0 0 0 663136.000000 7.000000 7.000000 -1221874.375000 1.000000 
-6561.941406 -1272.487061 -998.645508 0 0 0 663137.000000 7.000000 1.000000 -1221874.375000 1.000000 
-6561.547852 -1270.934448 -998.510986 0 0 0 663137.000000 7.000000 2.000000 -1221874.375000 1.000000 
-6561.297363 -1269.947144 -998.425476 0 0 0 663137.000000 7.000000 3.000000 -1221874.375000 1.000000 
-6561.032715 -1268.902710 -998.335022 0 0 0 663137.000000 7.000000 4.000000 -1221874.375000 1.000000 
-6560.769531 -1267.864624 -998.244995 0 0 0 663137.000000 7.000000 5.000000 -1221874.375000 1.000000 
-6560.520508 -1266.883911 -998.160095 0 0 0 663137.000000 7.000000 6.000000 -1221874.375000 1.000000 
-6560.123535 -1265.316406 -998.024292 0 0 0 663137.000000 7.000000 7.000000 -1221874.375000 1.000000 
-6660.621582 -1661.539307 -997.319885 0 0 0 663138.000000 1.000000 1.000000 -1221874.375000 1.000000 
-6660.645996 -1661.539185 -962.097900 0 0 0 663139.000000 1.000000 1.000000 -1221874.375000 1.000000 
-6660.672852 -1661.546265 -926.637817 0 0 0 663140.000000 1.000000 1.000000 -1221874.375000 1.000000 
-6660.697266 -1661.544189 -890.889160 0 0 0 663141.000000 1.000000 1.000000 -1221874.375000 1.000000 
-6660.724121 -1661.552002 -854.806396 0 0 0 663142.000000 1.000000 1.000000 -1221874.375000 1.000000 
-6612.581543 -1471.516846 -771.485596 0 0 0 663143.000000 1.000000 1.000000 -1221874.375000 1.000000 
-6612.609375 -1471.515625 -729.332092 0 0 0 663144.000000 1.000000 1.000000 -1221874.375000 1.000000 
-6612.641602 -1471.529541 -686.616699 0 0 0 663145.000000 1.000000 1.000000 -1221874.375000 1.000000 
-6612.672363 -1471.540039 -643.267578 0 0 0 663146.000000 1.000000 1.000000 -1221874.375000 1.000000 
-6612.702637 -1471.546143 -599.214172 0 0 0 663147.000000 1.000000 1.000000 -1221874.375000 1.000000 
-6612.731934 -1471.550293 -554.382690 0 0 0 663148.000000 1.000000 1.000000 -1221874.375000 1.000000 
-6612.751953 -1471.517090 -508.678894 0 0 0 663149.000000 1.000000 1.000000 -1221874.375000 1.000000 
-6612.779297 -1471.514038 -462.045593 0 0 0 663150.000000 1.000000 1.000000 -1221874.375000 1.000000 
-6612.813477 -1471.535522 -414.392517 0 0 0 663151.000000 1.000000 1.000000 -1221874.375000 1.000000 
-6612.841797 -1471.535400 -365.601624 0 0 0 663152.000000 1.000000 1.000000 -1221874.375000 1.000000 
-6612.859375 -1471.494019 -315.555420 0 0 0 663153.000000 1.000000 1.000000 -1221874.375000 1.000000 
-6612.892090 -1471.509644 -264.193726 0 0 0 663154.000000 1.000000 1.000000 -1221874.375000 1.000000 
-6612.923340 -1471.522217 -211.362610 0 0 0 663155.000000 1.000000 1.000000 -1221874.375000 1.000000 
-6612.942871 -1471.487549 -156.899597 0 0 0 663156.000000 1.000000 1.000000 -1221874.375000 1.000000 
-6612.975098 -1471.500977 -100.718872 0 0 0 663157.000000 1.000000 1.000000 -1221874.375000 1.000000 
-6613.007324 -1471.517944 -42.633057 0 0 0 663158.000000 1.000000 1.000000 -1221874.375000 1.000000 
-6617.121582 -1487.656738 5.238892 0 0 0 663159.000000 1.000000 1.000000 -1221874.375000 1.000000 
-6634.642578 -1556.756958 11.510864 0 0 0 663160.000000 1.000000 1.000000 -1221874.375000 1.000000 
-6377.838867 -531.461792 -998.838989 0 0 0 663206.000000 7.000000 1.000000 -1221874.375000 1.000000 
-6377.562988 -530.367065 -998.772705 0 0 0 663206.000000 7.000000 2.000000 -1221874.375000 1.000000 
-6376.787109 -527.288452 -998.586304 0 0 0 663206.000000 7.000000 3.000000 -1221874.375000 1.000000 
-6376.260742 -525.200195 -998.459900 0 0 0 663206.000000 7.000000 4.000000 -1221874.375000 1.000000 
-6375.731934 -523.102417 -998.332886 0 0 0 663206.000000 7.000000 5.000000 -1221874.375000 1.000000 
-6375.191406 -520.958862 -998.203064 0 0 0 663206.000000 7.000000 6.000000 -1221874.375000 1.000000 
-6374.666504 -518.875977 -998.077026 0 0 0 663206.000000 7.000000 7.000000 -1221874.375000 1.000000 
-6373.875000 -515.734009 -997.886719 0 0 0 663206.000000 7.000000 7.000000 -1221874.375000 1.000000 
-6373.625977 -514.747681 -997.827026 0 0 0 663206.000000 7.000000 7.000000 -1221874.375000 1.000000 
-6564.476563 -1271.853271 -998.646118 0 0 0 663207.000000 7.000000 1.000000 -1221874.375000 1.000000 
-6564.081055 -1270.285645 -998.510315 0 0 0 663207.000000 7.000000 2.000000 -1221874.375000 1.000000 
-6563.835449 -1269.310913 -998.425903 0 0 0 663207.000000 7.000000 3.000000 -1221874.375000 1.000000 
-6563.572754 -1268.268433 -998.335632 0 0 0 663207.000000 7.000000 4.000000 -1221874.375000 1.000000 
-6563.307617 -1267.215698 -998.244507 0 0 0 663207.000000 7.000000 5.000000 -1221874.375000 1.000000 
-6563.061523 -1266.238281 -998.159790 0 0 0 663207.000000 7.000000 6.000000 -1221874.375000 1.000000 
-6562.666992 -1264.673096 -998.024292 0 0 0 663207.000000 7.000000 7.000000 -1221874.375000 1.000000 
-6662.707520 -1661.533447 -997.375183 0 0 0 663208.000000 1.000000 1.000000 -1221874.375000 1.000000 
-6662.734375 -1661.541992 -962.167297 0 0 0 663209.000000 1.000000 1.000000 -1221874.375000 1.000000 
-6662.758789 -1661.539673 -926.718811 0 0 0 663210.000000 1.000000 1.000000 -1221874.375000 1.000000 
-6662.785645 -1661.546875 -890.985107 0 0 0 663211.000000 1.000000 1.000000 -1221874.375000 1.000000 
-6662.811035 -1661.549561 -854.914612 0 0 0 663212.000000 1.000000 1.000000 -1221874.375000 1.000000 
-6614.962891 -1471.508057 -771.622986 0 0 0 663213.000000 1.000000 1.000000 -1221874.375000 1.000000 
-6614.991699 -1471.508667 -729.485413 0 0 0 663214.000000 1.000000 1.000000 -1221874.375000 1.000000 
-6615.023438 -1471.521240 -686.785095 0 0 0 663215.000000 1.000000 1.000000 -1221874.375000 1.000000 
-6615.055176 -1471.535767 -643.453308 0 0 0 663216.000000 1.000000 1.000000 -1221874.375000 1.000000 
-6615.085938 -1471.544556 -599.416992 0 0 0 663217.000000 1.000000 1.000000 -1221874.375000 1.000000 
-6615.117676 -1471.558960 -554.606018 0 0 0 663218.000000 1.000000 1.000000 -1221874.375000 1.000000 
-6615.132813 -1471.506592 -508.911377 0 0 0 663219.000000 1.000000 1.000000 -1221874.375000 1.000000 
-6615.163574 -1471.514771 -462.299988 0 0 0 663220.000000 1.000000 1.000000 -1221874.375000 1.000000 
-6615.195313 -1471.529175 -414.661194 0 0 0 663221.000000 1.000000 1.000000 -1221874.375000 1.000000 
-6615.225586 -1471.536255 -365.891724 0 0 0 663222.000000 1.000000 1.000000 -1221874.375000 1.000000 
-6615.244141 -1471.497925 -315.865723 0 0 0 663223.000000 1.000000 1.000000 -1221874.375000 1.000000 
-6615.276367 -1471.513672 -264.523193 0 0 0 663224.000000 1.000000 1.000000 -1221874.375000 1.000000 
-6615.307129 -1471.521606 -211.708923 0 0 0 663225.000000 1.000000 1.000000 -1221874.375000 1.000000 
-6615.323730 -1471.475952 -157.258972 0 0 0 663226.000000 1.000000 1.000000 -1221874.375000 1.000000 
-6615.358398 -1471.499756 -101.105713 0 0 0 663227.000000 1.000000 1.000000 -1221874.375000 1.000000 
-6615.390137 -1471.514282 -43.039551 0 0 0 663228.000000 1.000000 1.000000 -1221874.375000 1.000000 
-6619.319824 -1487.019043 5.298462 0 0 0 663229.000000 1.000000 1.000000 -1221874.375000 1.000000 
-6636.740723 -1556.149658 11.569458 0 0 0 663230.000000 1.000000 1.000000 -1221874.375000 1.000000 
-6381.458008 -530.550659 -998.838928 0 0 0 663276.000000 7.000000 1.000000 -1221874.375000 1.000000 
-6381.183594 -529.454102 -998.772522 0 0 0 663276.000000 7.000000 2.000000 -1221874.375000 1.000000 
-6380.410645 -526.369751 -998.585815 0 0 0 663276.000000 7.000000 3.000000 -1221874.375000 1.000000 
-6379.887695 -524.280273 -998.459412 0 0 0 663276.000000 7.000000 4.000000 -1221874.375000 1.000000 
-6379.365723 -522.196533 -998.333313 0 0 0 663276.000000 7.000000 5.000000 -1221874.375000 1.000000 
-6378.828125 -520.050049 -998.203308 0 0 0 663276.000000 7.000000 6.000000 -1221874.375000 1.000000 
-6378.303711 -517.957520 -998.076721 0 0 0 663276.000000 7.000000 7.000000 -1221874.375000 1.000000 
-6377.518555 -514.822876 -997.887024 0 0 0 663276.000000 7.000000 7.000000 -1221874.375000 1.000000 
-6377.241211 -513.715088 -997.819885 0 0 0 663276.000000 7.000000 7.000000 -1221874.375000 1.000000 
-6567.012695 -1271.224854 -998.646790 0 0 0 663277.000000 7.000000 1.000000 -1221874.375000 1.000000 
-6566.620117 -1269.657349 -998.511108 0 0 0 663277.000000 7.000000 2.000000 -1221874.375000 1.000000 
-6566.373047 -1268.671509 -998.425720 0 0 0 663277.000000 7.000000 3.000000 -1221874.375000 1.000000 
-6566.109375 -1267.618408 -998.334595 0 0 0 663277.000000 7.000000 4.000000 -1221874.375000 1.000000 
-6565.850586 -1266.585327 -998.245117 0 0 0 663277.000000 7.000000 5.000000 -1221874.375000 1.000000 
-6565.601563 -1265.592529 -998.159180 0 0 0 663277.000000 7.000000 6.000000 -1221874.375000 1.000000 
-6565.213379 -1264.040771 -998.024902 0 0 0 663277.000000 7.000000 7.000000 -1221874.375000 1.000000 
-6664.793945 -1661.534424 -997.430908 0 0 0 663278.000000 1.000000 1.000000 -1221874.375000 1.000000 
-6664.819336 -1661.537354 -962.235168 0 0 0 663279.000000 1.000000 1.000000 -1221874.375000 1.000000 
-6664.847168 -1661.548950 -926.801880 0 0 0 663280.000000 1.000000 1.000000 -1221874.375000 1.000000 
-6664.872070 -1661.548950 -891.080200 0 0 0 663281.000000 1.000000 1.000000 -1221874.375000 1.000000 
