ply
format ascii 1.0
comment Created by CloudCompare v2.12 alpha
comment Created 6/8/2021 9:01 PM
obj_info Generated by CloudCompare!
element vertex 457
property double x
property double y
property double z
property float scalar_fullwaveIndex
property float scalar_NumberOfReturns
property float scalar_ReturnNumber
property float scalar_GpsTime
property float scalar_Intensity
property float scalar_Original_cloud_index
end_header
-6935.269601 -1391.770092 -208.378174 10721685.000000 2.000000 2.000000 -784077.500000 0.000000 2.000000 
-6188.527810 -80.173564 -892.295898 9233978.000000 7.000000 1.000000 -784295.125000 0.000000 2.000000 
-5675.784707 -1015.709087 -845.180695 11608244.000000 1.000000 1.000000 -783946.437500 0.000000 2.000000 
-5618.414712 -298.134502 -912.848694 13090711.000000 7.000000 7.000000 -783743.687500 0.000000 2.000000 
-6929.117303 -318.478496 52.800659 5066129.000000 7.000000 1.000000 -784607.062500 0.000000 1.000000 
-6646.029702 -1492.012203 36.041504 8034548.000000 7.000000 7.000000 -784437.750000 0.000000 1.000000 
-5843.965493 -1296.315013 -17.797485 13979491.000000 1.000000 1.000000 -783645.125000 0.000000 2.000000 
-6596.382485 -270.616924 -268.005310 11024859.000000 2.000000 1.000000 -784031.375000 0.000000 2.000000 
-5831.772256 -271.677593 -310.463684 12798457.000000 1.000000 1.000000 -783776.875000 0.000000 2.000000 
-5787.981362 -949.625591 -839.089996 13091337.000000 1.000000 1.000000 -783743.625000 0.000000 2.000000 
-5898.856729 -1227.403911 -732.910706 14572185.000000 7.000000 2.000000 -783593.062500 0.000000 2.000000 
-6962.682504 -270.554790 -113.853027 9832964.000000 7.000000 2.000000 -784209.000000 0.000000 2.000000 
-6787.120187 -1390.861797 -384.422180 6546561.000000 7.000000 4.000000 -784539.937500 0.000000 1.000000 
-6890.136605 -270.990215 -230.860718 9533924.000000 7.000000 3.000000 -784252.750000 0.000000 2.000000 
-6608.674691 -272.554668 -648.319092 10726870.000000 4.000000 4.000000 -784077.125000 0.000000 2.000000 
-6250.420876 -81.449443 -946.124496 11024164.000000 6.000000 3.000000 -784031.437500 0.000000 2.000000 
-5863.239907 -1265.094493 -17.137573 9225713.000000 7.000000 2.000000 -784296.187500 0.000000 2.000000 
-5948.516641 -236.440044 3.629272 8040431.000000 6.000000 1.000000 -784436.875000 0.000000 1.000000 
-6510.299783 -1500.954799 30.720093 3868430.000000 7.000000 4.000000 -784675.812500 0.000000 1.000000 
-5897.871133 -955.652812 97.940308 2521134.000000 2.000000 1.000000 -784762.875000 0.000000 0.000000 
-6277.177285 -271.530620 -458.927795 13984819.000000 1.000000 1.000000 -783644.437500 0.000000 2.000000 
-6177.197122 -138.671489 -844.200592 6852115.000000 5.000000 1.000000 -784521.875000 0.000000 1.000000 
-6451.857278 -271.447490 -449.544678 13397168.000000 2.000000 1.000000 -783709.187500 0.000000 2.000000 
-6624.682198 -349.808208 -155.163025 2127603.000000 7.000000 7.000000 -784787.437500 0.000000 0.000000 
-5945.044473 -271.528911 -458.299622 13980059.000000 1.000000 1.000000 -783645.062500 0.000000 2.000000 
-5748.279214 -1289.796886 -17.928711 13978441.000000 1.000000 1.000000 -783645.312500 0.000000 2.000000 
-6790.689004 -1390.839000 -305.695801 5951421.000000 7.000000 5.000000 -784571.125000 0.000000 1.000000 
-5798.367349 -402.804180 -479.056519 11315993.000000 4.000000 4.000000 -783987.812500 0.000000 2.000000 
-6039.618691 -271.867534 -688.855713 9530848.000000 6.000000 5.000000 -784252.875000 0.000000 2.000000 
-5785.320229 -514.182842 -18.020752 4471762.000000 7.000000 7.000000 -784637.000000 0.000000 1.000000 
-5714.749307 -980.266521 -10.368530 5359573.000000 6.000000 2.000000 -784594.625000 0.000000 1.000000 
-5616.959512 -809.212322 -971.332397 10419712.000000 5.000000 1.000000 -784123.687500 0.000000 2.000000 
-5858.698159 -1472.400096 -417.358521 4167054.000000 7.000000 4.000000 -784656.250000 0.000000 1.000000 
-6379.684487 -271.666851 -286.080078 14281128.000000 1.000000 1.000000 -783617.187500 0.000000 2.000000 
-6242.495217 -1472.428005 -453.603210 4166493.000000 7.000000 4.000000 -784656.250000 0.000000 1.000000 
-5666.269326 -1230.403606 -16.629150 10417536.000000 7.000000 3.000000 -784124.187500 0.000000 2.000000 
-6329.685586 -1543.037998 20.504272 5057871.000000 6.000000 6.000000 -784608.937500 0.000000 1.000000 
-6569.728982 -349.442852 -133.400024 2127649.000000 7.000000 7.000000 -784787.437500 0.000000 0.000000 
-6116.869790 -270.129619 -371.358704 7148353.000000 7.000000 2.000000 -784503.625000 0.000000 1.000000 
-5717.899453 -1160.007915 -14.858521 5655113.000000 5.000000 2.000000 -784583.125000 0.000000 1.000000 
-6082.697671 -82.486797 -863.764893 10725333.000000 6.000000 6.000000 -784077.187500 0.000000 2.000000 
-5965.441323 -248.798320 -839.646210 12504599.000000 1.000000 1.000000 -783811.312500 0.000000 2.000000 
-5512.512368 -1198.524089 -15.510498 7437452.000000 7.000000 2.000000 -784486.187500 0.000000 1.000000 
-6815.884500 -1390.014507 23.900024 6844269.000000 7.000000 1.000000 -784523.500000 0.000000 1.000000 
-5954.674355 -274.456035 3.889282 6850852.000000 4.000000 1.000000 -784522.000000 0.000000 1.000000 
-5798.142861 -470.807354 -703.834686 11018283.000000 5.000000 4.000000 -784032.000000 0.000000 2.000000 
-5798.910439 -800.231426 -748.904510 11610484.000000 4.000000 4.000000 -783946.000000 0.000000 2.000000 
-5798.113320 -302.051494 -599.918823 11316694.000000 4.000000 3.000000 -783987.750000 0.000000 2.000000 
-5926.900674 -1366.734203 -84.340942 14276571.000000 7.000000 7.000000 -783617.687500 0.000000 2.000000 
-5877.802407 -548.940288 -16.294189 12502003.000000 1.000000 1.000000 -783811.687500 0.000000 2.000000 
-5828.343789 -946.741130 -9.224854 7737681.000000 7.000000 2.000000 -784463.125000 0.000000 1.000000 
-5798.133706 -852.425396 -727.819794 11015832.000000 6.000000 4.000000 -784032.437500 0.000000 2.000000 
-5798.121255 -583.648540 -759.707092 10720012.000000 4.000000 3.000000 -784077.750000 0.000000 2.000000 
-5954.107583 -271.931621 -311.195801 10723160.000000 4.000000 4.000000 -784077.312500 0.000000 2.000000 
-5670.999551 -297.915264 -13.879150 10721129.000000 4.000000 1.000000 -784077.562500 0.000000 2.000000 
-5594.502603 -1070.205303 -13.068237 13384772.000000 1.000000 1.000000 -783711.000000 0.000000 2.000000 
-5923.689126 -1122.164470 -36.979248 11312558.000000 4.000000 2.000000 -783988.437500 0.000000 2.000000 
-6457.470010 -349.845439 -88.846436 2127741.000000 7.000000 7.000000 -784787.375000 0.000000 0.000000 
-5625.310830 -1234.842815 -17.573853 6248503.000000 6.000000 5.000000 -784556.812500 0.000000 1.000000 
-5926.997842 -1344.980907 -109.285889 14572741.000000 7.000000 7.000000 -783593.000000 0.000000 2.000000 
-5897.247842 -1026.821392 128.617554 12500110.000000 7.000000 2.000000 -783812.312500 0.000000 2.000000 
-6530.872903 -1391.742900 -710.008789 12801323.000000 2.000000 2.000000 -783776.562500 0.000000 2.000000 
-6121.013772 -271.703594 -734.355194 12210037.000000 1.000000 1.000000 -783867.687500 0.000000 2.000000 
-5767.353066 -848.312908 -8.775024 13978233.000000 1.000000 1.000000 -783645.312500 0.000000 2.000000 
-5725.677651 -1344.537914 -15.730103 5356563.000000 5.000000 1.000000 -784595.937500 0.000000 1.000000 
-5985.512002 -1474.648296 4.406982 9523563.000000 7.000000 4.000000 -784253.937500 0.000000 2.000000 
-5902.518594 -271.779155 -816.153290 11614756.000000 2.000000 2.000000 -783945.312500 0.000000 2.000000 
-6018.896646 -272.517192 -325.031799 10127528.000000 3.000000 3.000000 -784165.562500 0.000000 2.000000 
-6694.664010 -1470.703502 -500.790527 3110902.000000 7.000000 7.000000 -784724.062500 0.000000 0.000000 
-6351.968301 -248.251201 22.494507 12508863.000000 1.000000 1.000000 -783810.812500 0.000000 2.000000 
-6727.432687 -271.722881 -368.789490 13400667.000000 2.000000 2.000000 -783708.812500 0.000000 2.000000 
-5958.930581 -1643.551900 -848.732086 3110766.000000 7.000000 7.000000 -784724.125000 0.000000 0.000000 
-6416.059792 -81.410625 -861.583099 10727222.000000 4.000000 2.000000 -784077.062500 0.000000 2.000000 
-6659.411996 -81.185039 -951.699707 11622105.000000 5.000000 2.000000 -783944.750000 0.000000 2.000000 
-5946.696572 -273.016460 -726.716614 7148075.000000 7.000000 7.000000 -784503.625000 0.000000 1.000000 
-5798.888223 -603.945659 -791.366608 11314664.000000 6.000000 6.000000 -783988.062500 0.000000 2.000000 
-5798.960488 -724.586223 -636.244507 12500326.000000 7.000000 7.000000 -783812.187500 0.000000 2.000000 
-5897.876260 -759.573284 69.511108 3707385.000000 2.000000 1.000000 -784684.312500 0.000000 0.000000 
-6198.861184 -271.452739 -662.993500 13098549.000000 2.000000 1.000000 -783742.562500 0.000000 2.000000 
-6891.426095 -272.475200 -226.417114 11026468.000000 2.000000 2.000000 -784031.312500 0.000000 2.000000 
-6778.862802 -300.922832 45.260620 7744259.000000 7.000000 1.000000 -784462.187500 0.000000 1.000000 
-5978.260537 -270.276470 -207.456482 9232015.000000 6.000000 1.000000 -784295.250000 0.000000 2.000000 
-6472.847573 -1515.654903 29.811768 11016525.000000 7.000000 1.000000 -784032.312500 0.000000 2.000000 
-6282.903176 -353.422344 -19.311646 2127879.000000 7.000000 1.000000 -784787.375000 0.000000 0.000000 
-6627.388894 -1577.404102 -844.762390 2715808.000000 7.000000 6.000000 -784750.062500 0.000000 0.000000 
-6179.634500 -270.615947 -792.905701 11319844.000000 4.000000 1.000000 -783987.375000 0.000000 2.000000 
-6112.192178 -271.628643 -142.798096 13687597.000000 1.000000 1.000000 -783673.750000 0.000000 2.000000 
-6041.807290 -1391.968700 7.127197 13093080.000000 1.000000 1.000000 -783743.312500 0.000000 2.000000 
-6289.895425 -351.459331 -22.293213 2127879.000000 7.000000 6.000000 -784787.375000 0.000000 0.000000 
-6673.489114 -352.273662 0.942261 2917470.000000 7.000000 4.000000 -784736.375000 0.000000 0.000000 
-5928.935952 -1452.642406 -19.392944 11310877.000000 3.000000 3.000000 -783988.812500 0.000000 2.000000 
-5885.167153 -1470.125103 -822.647308 3111548.000000 7.000000 7.000000 -784724.062500 0.000000 0.000000 
-6296.307778 -349.659038 -25.027466 2127879.000000 7.000000 7.000000 -784787.375000 0.000000 0.000000 
-5628.960610 -284.947246 -847.840790 13385831.000000 1.000000 1.000000 -783710.812500 0.000000 2.000000 
-6608.420907 -353.040508 -228.294189 3875780.000000 7.000000 1.000000 -784674.562500 0.000000 1.000000 
-5938.699868 -1470.677394 -676.137299 2519250.000000 7.000000 7.000000 -784763.187500 0.000000 0.000000 
-5705.470742 -1061.279094 -843.059998 8927657.000000 7.000000 3.000000 -784338.937500 0.000000 2.000000 
-6373.182290 -271.594829 -162.382690 11618601.000000 2.000000 1.000000 -783944.937500 0.000000 2.000000 
-6622.225198 -271.477275 -659.207306 11025001.000000 5.000000 2.000000 -784031.375000 0.000000 2.000000 
-5704.409951 -1434.090908 -14.892212 4761773.000000 5.000000 3.000000 -784623.187500 0.000000 1.000000 
-6633.603311 -87.449687 -848.139313 12809099.000000 1.000000 1.000000 -783775.750000 0.000000 2.000000 
-5668.742715 -872.871501 -7.676392 6251513.000000 5.000000 2.000000 -784556.062500 0.000000 1.000000 
-6809.424386 -271.667949 -285.037292 14582128.000000 1.000000 1.000000 -783591.937500 0.000000 2.000000 
-6664.797097 -1451.823802 36.981812 8034828.000000 7.000000 7.000000 -784437.687500 0.000000 1.000000 
-5891.378457 -594.530742 -15.210327 8633190.000000 7.000000 5.000000 -784374.000000 0.000000 1.000000 
-5927.498574 -1246.245708 -206.948608 14572532.000000 7.000000 6.000000 -783593.062500 0.000000 2.000000 
-6820.699990 -1391.876110 -36.063110 9527412.000000 5.000000 4.000000 -784253.250000 0.000000 2.000000 
-6195.107705 -348.552104 14.898926 2127971.000000 7.000000 4.000000 -784787.312500 0.000000 0.000000 
-5702.142617 -1018.615825 -11.780273 13090212.000000 2.000000 1.000000 -783743.750000 0.000000 2.000000 
-6761.795388 -1450.406795 43.576782 6843779.000000 7.000000 3.000000 -784523.625000 0.000000 1.000000 
-7012.577203 -348.209209 55.437012 6553769.000000 7.000000 5.000000 -784538.312500 0.000000 1.000000 
-6665.920602 -1462.613002 38.766357 5058430.000000 7.000000 3.000000 -784608.750000 0.000000 1.000000 
-6188.278909 -335.724346 16.186279 2128017.000000 7.000000 1.000000 -784787.312500 0.000000 0.000000 
-5799.479043 -273.322368 15.352905 12798035.000000 1.000000 1.000000 -783776.937500 0.000000 2.000000 
-5908.720010 -1618.988102 -844.945313 3703340.000000 5.000000 1.000000 -784684.937500 0.000000 0.000000 
-6591.311196 -271.605449 -94.630371 11322639.000000 2.000000 2.000000 -783987.187500 0.000000 2.000000 
-5617.656777 -251.103374 -884.556793 12500400.000000 7.000000 4.000000 -783812.187500 0.000000 2.000000 
-5617.727212 -367.973247 -882.211395 12795310.000000 7.000000 4.000000 -783777.375000 0.000000 2.000000 
-5645.627725 -886.970806 -846.906708 10717072.000000 2.000000 1.000000 -784078.250000 0.000000 2.000000 
-5845.821450 -271.637798 -96.281006 14568686.000000 1.000000 1.000000 -783593.500000 0.000000 2.000000 
-6111.473916 -271.000957 -183.641479 8338211.000000 7.000000 3.000000 -784406.312500 0.000000 1.000000 
-6896.256402 -352.804912 -14.481689 4470639.000000 7.000000 2.000000 -784637.250000 0.000000 1.000000 
-6369.546182 -271.694561 -519.517212 11321172.000000 5.000000 3.000000 -783987.312500 0.000000 2.000000 
-6724.173287 -271.728984 -154.713684 12215632.000000 1.000000 1.000000 -783867.250000 0.000000 2.000000 
-5954.478799 -1417.634197 2.348145 4464552.000000 4.000000 4.000000 -784638.625000 0.000000 1.000000 
-6190.282998 -320.370342 13.693604 2128063.000000 7.000000 6.000000 -784787.312500 0.000000 0.000000 
-5897.876260 -767.470989 26.322388 2916827.000000 2.000000 1.000000 -784736.625000 0.000000 0.000000 
-5810.159341 -1031.457195 -12.320435 12499201.000000 3.000000 3.000000 -783812.625000 0.000000 2.000000 
-5798.383340 -322.036968 -801.622498 11316555.000000 5.000000 4.000000 -783987.750000 0.000000 2.000000 
-5809.061440 -393.594829 -17.758789 7444172.000000 7.000000 7.000000 -784484.687500 0.000000 1.000000 
-6183.788308 -307.451152 14.821655 2128109.000000 7.000000 3.000000 -784787.312500 0.000000 0.000000 
-5684.498330 -544.379253 -844.850494 8632774.000000 5.000000 4.000000 -784374.062500 0.000000 1.000000 
-6185.917703 -306.836406 13.911743 2128109.000000 7.000000 5.000000 -784787.312500 0.000000 0.000000 
-5728.558633 -287.705303 -842.353912 14567220.000000 1.000000 1.000000 -783593.750000 0.000000 2.000000 
-5883.613442 -271.610332 -111.256958 7742582.000000 7.000000 5.000000 -784462.312500 0.000000 1.000000 
-5871.212686 -889.027996 -8.643555 4468752.000000 5.000000 3.000000 -784637.687500 0.000000 1.000000 
-5898.188027 -1003.141399 85.871948 3873191.000000 2.000000 2.000000 -784675.125000 0.000000 1.000000 
-5897.890176 -718.397930 15.951782 3312198.000000 2.000000 1.000000 -784710.187500 0.000000 0.000000 
-6369.724771 -1391.672313 -47.876343 13096370.000000 1.000000 1.000000 -783742.875000 0.000000 2.000000 
-6837.823403 -1464.006099 47.596924 11316825.000000 7.000000 2.000000 -783987.687500 0.000000 2.000000 
-5617.859048 -334.611309 -921.699707 10720504.000000 4.000000 2.000000 -784077.687500 0.000000 2.000000 
-5621.283242 -1168.647899 -849.339111 3310637.000000 5.000000 5.000000 -784710.500000 0.000000 0.000000 
-7010.245103 -284.302593 56.860474 5661479.000000 7.000000 1.000000 -784580.687500 0.000000 1.000000 
-5702.066812 -1076.511699 -13.899658 2718337.000000 7.000000 6.000000 -784749.687500 0.000000 0.000000 
-6679.289987 -289.054424 40.278931 8041829.000000 7.000000 1.000000 -784436.812500 0.000000 1.000000 
-5798.214517 -716.965984 -535.226624 11907704.000000 3.000000 2.000000 -783906.625000 0.000000 2.000000 
-5798.333047 -370.496196 -648.311188 13092949.000000 7.000000 7.000000 -783743.312500 0.000000 2.000000 
-5603.698159 -715.025920 -12.693848 2719809.000000 7.000000 6.000000 -784749.312500 0.000000 0.000000 
-5618.036904 -1591.782703 -857.813599 4760517.000000 1.000000 1.000000 -784623.437500 0.000000 1.000000 
-5859.176675 -1407.985897 -15.407227 12201699.000000 3.000000 2.000000 -783869.000000 0.000000 2.000000 
-6181.414895 -278.539409 12.515015 2128201.000000 7.000000 7.000000 -784787.250000 0.000000 0.000000 
-5869.283486 -522.307842 -16.935547 7146042.000000 6.000000 4.000000 -784504.000000 0.000000 1.000000 
-6754.642190 -271.862041 -345.536011 11918762.000000 3.000000 3.000000 -783905.437500 0.000000 2.000000 
-6513.931924 -1520.258297 31.166138 3868290.000000 7.000000 3.000000 -784675.875000 0.000000 1.000000 
-6600.553201 -1477.287502 -839.055206 2716176.000000 7.000000 5.000000 -784750.062500 0.000000 0.000000 
-5819.151528 -349.959453 -16.318115 7444522.000000 7.000000 6.000000 -784484.687500 0.000000 1.000000 
-5943.602944 -271.678081 -125.578857 11911833.000000 1.000000 1.000000 -783906.000000 0.000000 2.000000 
-5897.653115 -151.250469 -845.143890 5960386.000000 4.000000 4.000000 -784568.000000 0.000000 1.000000 
-6058.356484 -1538.864398 -841.465607 3506045.000000 6.000000 2.000000 -784697.687500 0.000000 0.000000 
-6666.434792 -1391.858989 -103.728394 9228162.000000 5.000000 4.000000 -784295.750000 0.000000 2.000000 
-5897.881509 -791.610271 29.634399 2916735.000000 2.000000 1.000000 -784736.625000 0.000000 0.000000 
-5916.832559 -271.784771 -65.817261 9828766.000000 3.000000 2.000000 -784209.187500 0.000000 2.000000 
-5862.371865 -1580.796100 -843.021301 4463366.000000 4.000000 1.000000 -784638.812500 0.000000 1.000000 
-6170.933022 -251.985454 13.640747 2128293.000000 7.000000 4.000000 -784787.250000 0.000000 0.000000 
-6879.869302 -272.197002 -63.177612 12810423.000000 2.000000 2.000000 -783775.687500 0.000000 2.000000 
-5964.923867 -271.613994 -139.406494 11318231.000000 1.000000 1.000000 -783987.562500 0.000000 2.000000 
-6831.310891 -270.636943 -150.397827 10429646.000000 4.000000 1.000000 -784122.625000 0.000000 2.000000 
-5798.291543 -272.187969 -392.061584 9828208.000000 1.000000 1.000000 -784209.250000 0.000000 2.000000 
-5928.721353 -261.559062 -14.511230 4175801.000000 2.000000 2.000000 -784654.312500 0.000000 1.000000 
-6530.427590 -271.631572 -136.068481 14578137.000000 1.000000 1.000000 -783592.437500 0.000000 2.000000 
-5967.752725 -1660.265200 -960.858398 4165446.000000 7.000000 7.000000 -784656.375000 0.000000 1.000000 
-5798.043984 -504.006084 -709.928711 10422791.000000 1.000000 1.000000 -784123.125000 0.000000 2.000000 
-6984.981698 -1392.723613 -189.399292 9826663.000000 4.000000 4.000000 -784209.437500 0.000000 2.000000 
-6327.216470 -1468.159297 21.550049 5058431.000000 6.000000 3.000000 -784608.750000 0.000000 1.000000 
-6691.050393 -272.551616 -494.069519 10727289.000000 4.000000 4.000000 -784077.062500 0.000000 2.000000 
-5560.258706 -975.233074 -11.606934 10120526.000000 7.000000 7.000000 -784166.625000 0.000000 2.000000 
-6200.952676 -271.630229 -244.365173 11914213.000000 1.000000 1.000000 -783905.750000 0.000000 2.000000 
-6575.232827 -1392.215312 -407.974426 5951212.000000 7.000000 7.000000 -784571.187500 0.000000 1.000000 
-5915.767739 -271.690654 -761.096405 13094840.000000 1.000000 1.000000 -783743.062500 0.000000 2.000000 
-6817.888497 -1512.279003 45.245972 9228091.000000 7.000000 6.000000 -784295.750000 0.000000 2.000000 
-6695.968698 -337.726055 38.654297 9532873.000000 7.000000 7.000000 -784252.812500 0.000000 2.000000 
-6342.363198 -271.633770 -142.927124 12212203.000000 1.000000 1.000000 -783867.437500 0.000000 2.000000 
-6504.486184 -1441.289699 30.386719 11909867.000000 5.000000 2.000000 -783906.312500 0.000000 2.000000 
-6167.597390 -223.316753 11.672729 2128385.000000 7.000000 7.000000 -784787.250000 0.000000 0.000000 
-6803.288308 -271.239482 -501.332275 10131027.000000 6.000000 3.000000 -784165.375000 0.000000 2.000000 
-5674.722939 -1385.586315 -14.841919 3704764.000000 7.000000 1.000000 -784684.812500 0.000000 0.000000 
-6319.006509 -271.687847 -244.638794 13395417.000000 1.000000 1.000000 -783709.437500 0.000000 2.000000 
-6573.200295 -122.547466 -844.941589 8042673.000000 5.000000 1.000000 -784436.750000 0.000000 1.000000 
-6300.168923 -152.545146 -844.818115 7744334.000000 6.000000 4.000000 -784462.187500 0.000000 1.000000 
-5898.116982 -1072.226482 40.794556 4764502.000000 1.000000 1.000000 -784622.562500 0.000000 1.000000 
-6018.314370 -1473.304500 4.918335 6842031.000000 6.000000 6.000000 -784524.062500 0.000000 1.000000 
-6877.937600 -1458.990795 48.359741 3868149.000000 7.000000 6.000000 -784675.875000 0.000000 1.000000 
-6119.018411 -1388.291790 -838.761597 13390165.000000 1.000000 1.000000 -783710.125000 0.000000 2.000000 
-5624.621377 -803.524089 -9.890991 3875362.000000 7.000000 5.000000 -784674.625000 0.000000 1.000000 
-6141.665200 -1391.563610 -163.132019 6248082.000000 7.000000 7.000000 -784556.937500 0.000000 1.000000 
-6590.855508 -1391.645885 -364.100830 13394992.000000 1.000000 1.000000 -783709.500000 0.000000 2.000000 
-5698.461343 -1077.568706 -12.785522 7141492.000000 7.000000 3.000000 -784505.062500 0.000000 1.000000 
-5897.752603 -793.298809 17.186279 12204781.000000 5.000000 3.000000 -783868.437500 0.000000 2.000000 
-5883.257974 -1470.592906 -494.084778 3869764.000000 7.000000 7.000000 -784675.750000 0.000000 1.000000 
-6160.421609 -195.775859 11.313477 2128477.000000 7.000000 7.000000 -784787.187500 0.000000 0.000000 
-6023.901040 -314.938457 5.867432 10425377.000000 5.000000 5.000000 -784122.812500 0.000000 2.000000 
-6133.477883 -271.255840 -274.095886 9232575.000000 7.000000 4.000000 -784295.250000 0.000000 2.000000 
-5642.958901 -1254.962108 -18.131958 10417256.000000 7.000000 6.000000 -784124.250000 0.000000 2.000000 
-6204.427712 -353.137554 -10.463379 3115593.000000 7.000000 1.000000 -784723.187500 0.000000 0.000000 
-5983.925088 -1472.487407 -810.499298 3869555.000000 7.000000 3.000000 -784675.750000 0.000000 1.000000 
-6761.220803 -341.623516 42.973145 13400734.000000 1.000000 1.000000 -783708.812500 0.000000 2.000000 
-6134.840371 -271.714458 -557.612183 12210176.000000 1.000000 1.000000 -783867.687500 0.000000 2.000000 
-6558.381692 -1391.410015 -74.426758 10719725.000000 2.000000 1.000000 -784077.812500 0.000000 2.000000 
-6168.478188 -1663.370800 -979.713196 2321082.000000 7.000000 2.000000 -784775.937500 0.000000 0.000000 
-5629.372109 -870.962322 -7.236328 3114306.000000 7.000000 2.000000 -784723.500000 0.000000 0.000000 
-5720.335122 -176.440898 -843.516907 7445646.000000 3.000000 3.000000 -784484.562500 0.000000 1.000000 
-5811.984414 -271.650249 -549.714294 13093439.000000 1.000000 1.000000 -783743.250000 0.000000 2.000000 
-6813.049905 -271.711528 -232.633118 13401716.000000 1.000000 1.000000 -783708.750000 0.000000 2.000000 
-6522.976418 -1543.054599 32.128784 2715990.000000 7.000000 2.000000 -784750.062500 0.000000 0.000000 
-5885.790322 -271.185161 -831.458710 11020314.000000 5.000000 2.000000 -784031.750000 0.000000 2.000000 
-5870.341104 -1247.838390 -18.494507 6546002.000000 6.000000 6.000000 -784540.062500 0.000000 1.000000 
-6786.674691 -1391.924388 -80.884277 10422714.000000 2.000000 2.000000 -784123.187500 0.000000 2.000000 
-6331.086099 -1391.629497 -61.618408 11016316.000000 2.000000 1.000000 -784032.375000 0.000000 2.000000 
-6243.819375 -1390.421215 -81.933105 8331839.000000 7.000000 2.000000 -784407.250000 0.000000 1.000000 
-6230.393411 -80.501567 -914.272400 9234118.000000 7.000000 2.000000 -784295.125000 0.000000 2.000000 
-5770.408486 -1463.592693 87.242554 4167262.000000 6.000000 4.000000 -784656.187500 0.000000 1.000000 
-6483.966897 -271.409771 -156.186890 10129696.000000 4.000000 2.000000 -784165.437500 0.000000 2.000000 
-6751.200295 -1562.657299 38.741333 2321125.000000 7.000000 4.000000 -784775.937500 0.000000 0.000000 
-5607.819741 -729.416729 -11.777466 12202122.000000 1.000000 1.000000 -783868.875000 0.000000 2.000000 
-6072.810830 -1392.159313 -11.757935 6842731.000000 7.000000 7.000000 -784523.875000 0.000000 1.000000 
-5927.510049 -1536.274303 -24.668335 12498569.000000 4.000000 3.000000 -783812.812500 0.000000 2.000000 
-6420.331277 -80.447979 -927.697601 8935847.000000 7.000000 2.000000 -784338.000000 0.000000 2.000000 
-6211.537209 -258.133159 -839.566803 6256695.000000 4.000000 4.000000 -784554.812500 0.000000 1.000000 
-5670.193276 -1662.155600 -929.237000 3505862.000000 7.000000 5.000000 -784697.687500 0.000000 0.000000 
-6298.032327 -1500.226406 20.093750 5652801.000000 6.000000 3.000000 -784584.062500 0.000000 1.000000 
-6217.152078 -271.867168 -565.368530 9531547.000000 7.000000 5.000000 -784252.875000 0.000000 2.000000 
-5618.327310 -212.291851 -853.714691 7742376.000000 3.000000 3.000000 -784462.312500 0.000000 1.000000 
-5798.070718 -315.659771 -550.092102 9231037.000000 1.000000 1.000000 -784295.312500 0.000000 2.000000 
-6133.688394 -271.601543 -216.325928 11616712.000000 1.000000 1.000000 -783945.125000 0.000000 2.000000 
-5716.452676 -738.121501 -11.807495 5955623.000000 6.000000 5.000000 -784569.875000 0.000000 1.000000 
-6754.104897 -272.986309 -358.819397 7446761.000000 7.000000 7.000000 -784484.437500 0.000000 1.000000 
-5726.284829 -577.294414 -15.554932 5956953.000000 6.000000 4.000000 -784569.312500 0.000000 1.000000 
-6667.705789 -218.376445 37.952759 6257040.000000 7.000000 6.000000 -784554.750000 0.000000 1.000000 
-6972.279504 -303.019390 53.405640 3875218.000000 7.000000 5.000000 -784674.687500 0.000000 1.000000 
-5882.103433 -1591.316700 -844.190399 2716223.000000 7.000000 3.000000 -784750.062500 0.000000 0.000000 
-5617.908608 -1341.358501 -899.201294 2914852.000000 2.000000 1.000000 -784736.937500 0.000000 0.000000 
-6472.299172 -1391.594585 -111.947144 11909868.000000 1.000000 1.000000 -783906.312500 0.000000 2.000000 
-5618.947549 -684.422771 -939.040207 13089869.000000 7.000000 7.000000 -783743.812500 0.000000 2.000000 
-6002.826089 -271.785747 -674.230988 11912396.000000 1.000000 1.000000 -783905.937500 0.000000 2.000000 
-5901.299966 -1582.692401 -845.297913 3703524.000000 5.000000 5.000000 -784684.937500 0.000000 0.000000 
-5770.985146 -895.113079 -8.922607 12203031.000000 3.000000 3.000000 -783868.687500 0.000000 2.000000 
-5898.704507 -791.222576 125.730347 13093012.000000 7.000000 7.000000 -783743.312500 0.000000 2.000000 
-5798.121987 -413.342998 -670.335693 11612865.000000 6.000000 4.000000 -783945.625000 0.000000 2.000000 
-6433.686990 -1391.565990 -119.965820 6248501.000000 7.000000 7.000000 -784556.812500 0.000000 1.000000 
-6424.602090 -270.399761 -707.870209 8636832.000000 7.000000 2.000000 -784373.687500 0.000000 1.000000 
-6664.201608 -270.614849 -235.632996 10130466.000000 5.000000 2.000000 -784165.375000 0.000000 2.000000 
-5940.061685 -270.368022 -614.994324 7742724.000000 7.000000 2.000000 -784462.312500 0.000000 1.000000 
-5996.803628 -1662.654600 -886.355011 2321174.000000 7.000000 4.000000 -784775.937500 0.000000 0.000000 
-5617.596353 -720.860393 -925.254807 10420272.000000 5.000000 2.000000 -784123.625000 0.000000 2.000000 
-6240.851113 -181.251445 9.142944 9830795.000000 6.000000 3.000000 -784209.062500 0.000000 2.000000 
-5797.075845 -320.653301 -610.942810 11316554.000000 5.000000 1.000000 -783987.750000 0.000000 2.000000 
-6161.659097 -271.572856 -349.536316 14572958.000000 1.000000 1.000000 -783593.000000 0.000000 2.000000 
-6414.580789 -271.737285 -803.198700 13396680.000000 2.000000 2.000000 -783709.250000 0.000000 2.000000 
-6092.625100 -1503.637905 8.342651 8926812.000000 7.000000 7.000000 -784339.062500 0.000000 2.000000 
-6953.552896 -1530.033702 51.564697 4165229.000000 7.000000 7.000000 -784656.375000 0.000000 1.000000 
-6003.464272 -271.078228 -455.519592 8635572.000000 7.000000 4.000000 -784373.750000 0.000000 1.000000 
-6511.484780 -1391.583110 -92.016235 13986701.000000 1.000000 1.000000 -783644.187500 0.000000 2.000000 
-5730.653726 -795.293193 -9.082642 11609920.000000 3.000000 1.000000 -783946.125000 0.000000 2.000000 
-5916.199136 -271.459697 -471.166870 12503897.000000 2.000000 1.000000 -783811.437500 0.000000 2.000000 
-6739.016793 -1535.927898 42.104004 2321217.000000 7.000000 4.000000 -784775.937500 0.000000 0.000000 
-5608.731851 -1416.199306 -15.019653 11011347.000000 6.000000 2.000000 -784033.312500 0.000000 2.000000 
-6741.049813 -1535.615497 41.259521 2321217.000000 7.000000 6.000000 -784775.937500 0.000000 0.000000 
-5719.783364 -460.737285 -16.962646 6254943.000000 5.000000 1.000000 -784555.375000 0.000000 1.000000 
-6131.540078 -272.474468 -678.419495 7445714.000000 7.000000 7.000000 -784484.562500 0.000000 1.000000 
-5734.898843 -957.874980 -10.354004 7142472.000000 7.000000 5.000000 -784504.812500 0.000000 1.000000 
-5798.153726 -282.252056 -592.797913 9828139.000000 1.000000 1.000000 -784209.250000 0.000000 2.000000 
-5926.289346 -1660.319500 -848.183502 2321220.000000 7.000000 4.000000 -784775.937500 0.000000 0.000000 
-6091.980081 -1437.382198 9.745239 2914067.000000 7.000000 4.000000 -784737.062500 0.000000 0.000000 
-6174.878579 -271.964702 -802.083588 11022273.000000 4.000000 4.000000 -784031.562500 0.000000 2.000000 
-5798.640908 -490.344707 -326.917603 12797126.000000 7.000000 7.000000 -783777.062500 0.000000 2.000000 
-5670.666909 -594.992656 -14.088013 11313680.000000 3.000000 1.000000 -783988.250000 0.000000 2.000000 
-6146.386575 -1471.622493 -788.542908 2519112.000000 7.000000 6.000000 -784763.187500 0.000000 0.000000 
-5703.713540 -1183.151500 -15.755371 9523844.000000 7.000000 4.000000 -784253.875000 0.000000 2.000000 
-5876.132363 -271.835430 -99.188354 11020240.000000 2.000000 2.000000 -784031.750000 0.000000 2.000000 
-6134.990823 -1614.109100 -846.052704 4165585.000000 5.000000 4.000000 -784656.375000 0.000000 1.000000 
-6174.284707 -1660.478200 -985.255707 3110536.000000 7.000000 7.000000 -784724.125000 0.000000 0.000000 
-6206.734719 -276.727397 14.911987 5067391.000000 6.000000 5.000000 -784606.812500 0.000000 1.000000 
-5739.231851 -648.113689 -841.857605 9228728.000000 6.000000 4.000000 -784295.625000 0.000000 2.000000 
-5797.175088 -412.514995 -281.301514 13387997.000000 7.000000 3.000000 -783710.375000 0.000000 2.000000 
-6568.813516 -1424.209804 32.499023 11017575.000000 7.000000 7.000000 -784032.125000 0.000000 2.000000 
-5642.013955 -115.422344 -845.976501 9530220.000000 4.000000 1.000000 -784252.937500 0.000000 2.000000 
-7030.490701 -316.558452 57.005249 6256409.000000 7.000000 3.000000 -784554.937500 0.000000 1.000000 
-5617.078530 -673.570598 -12.556641 8334011.000000 6.000000 2.000000 -784406.875000 0.000000 1.000000 
-6845.265695 -1476.542400 48.251587 12803768.000000 4.000000 1.000000 -783776.250000 0.000000 2.000000 
-5646.013101 -484.545757 -17.346558 9826036.000000 7.000000 3.000000 -784209.500000 0.000000 2.000000 
-6613.906594 -271.938579 -463.375793 11322781.000000 4.000000 4.000000 -783987.187500 0.000000 2.000000 
-6513.603921 -80.705913 -972.093307 8638233.000000 7.000000 3.000000 -784373.625000 0.000000 1.000000 
-5643.584512 -609.551372 -13.504761 5065643.000000 6.000000 1.000000 -784607.187500 0.000000 1.000000 
-6246.205605 -256.552471 17.007935 2720728.000000 7.000000 5.000000 -784749.062500 0.000000 0.000000 
-6183.759683 -1426.201000 13.908691 2519248.000000 7.000000 5.000000 -784763.187500 0.000000 0.000000 
-6318.587686 -1540.714099 19.945435 4760581.000000 6.000000 6.000000 -784623.437500 0.000000 1.000000 
-6444.974099 -1392.195293 -146.103516 7438850.000000 7.000000 7.000000 -784485.875000 0.000000 1.000000 
-5797.191934 -327.903789 -201.062500 13388137.000000 7.000000 3.000000 -783710.375000 0.000000 2.000000 
-5704.635659 -621.181743 -14.187012 6253613.000000 6.000000 3.000000 -784555.625000 0.000000 1.000000 
-6115.775125 -271.259502 -595.512207 8933746.000000 7.000000 4.000000 -784338.125000 0.000000 2.000000 
-6260.538674 -271.677715 -276.212280 12507745.000000 1.000000 1.000000 -783810.937500 0.000000 2.000000 
-6228.646218 -1391.579814 -97.331055 13687521.000000 1.000000 1.000000 -783673.812500 0.000000 2.000000 
-7066.534600 -1493.398296 58.345459 13695849.000000 3.000000 2.000000 -783672.812500 0.000000 2.000000 
-6414.844888 -190.442241 -841.374115 8339543.000000 6.000000 1.000000 -784406.250000 0.000000 1.000000 
-5547.744058 -1370.193889 -15.423462 12495420.000000 3.000000 1.000000 -783813.750000 0.000000 2.000000 
-5640.197061 -788.698406 -9.727905 9227464.000000 7.000000 3.000000 -784295.875000 0.000000 2.000000 
-6732.418313 -1494.077800 42.236572 2321355.000000 7.000000 3.000000 -784775.937500 0.000000 0.000000 
-6429.570596 -198.476055 26.141357 10726447.000000 5.000000 4.000000 -784077.125000 0.000000 2.000000 
-5927.501260 -1205.949687 -134.195923 14276362.000000 7.000000 7.000000 -783617.750000 0.000000 2.000000 
-5838.795449 -740.634197 -11.467163 4469942.000000 6.000000 4.000000 -784637.437500 0.000000 1.000000 
-7008.514703 -1391.665691 -121.248413 12805519.000000 1.000000 1.000000 -783776.000000 0.000000 2.000000 
-5617.354653 -1458.619106 -13.653198 14273490.000000 3.000000 1.000000 -783618.062500 0.000000 2.000000 
-5571.414956 -1112.062908 -14.652466 8628920.000000 7.000000 6.000000 -784374.750000 0.000000 1.000000 
-5718.419961 -1151.544994 -14.917358 5655183.000000 5.000000 3.000000 -784583.125000 0.000000 1.000000 
-5618.139932 -268.171001 -856.634613 11315436.000000 6.000000 4.000000 -783987.937500 0.000000 2.000000 
-6322.256021 -197.633159 21.891968 8041620.000000 7.000000 2.000000 -784436.812500 0.000000 1.000000 
-6500.881082 -270.199443 -218.726379 9233834.000000 7.000000 1.000000 -784295.187500 0.000000 2.000000 
-5510.882119 -1382.396892 -15.946045 3309807.000000 7.000000 4.000000 -784710.687500 0.000000 0.000000 
-6539.897622 -1555.802501 -843.314911 4760374.000000 6.000000 5.000000 -784623.437500 0.000000 1.000000 
-6239.945291 -1481.133297 -838.373810 2519020.000000 7.000000 3.000000 -784763.187500 0.000000 0.000000 
-5614.380654 -1293.212993 -17.961304 6248013.000000 4.000000 3.000000 -784556.937500 0.000000 1.000000 
-5563.835610 -978.776775 -10.609375 11310529.000000 4.000000 2.000000 -783988.875000 0.000000 2.000000 
-6731.498788 -1479.924007 41.731567 2321401.000000 7.000000 4.000000 -784775.937500 0.000000 0.000000 
-6141.256082 -1390.454814 -167.024597 8033570.000000 7.000000 2.000000 -784438.000000 0.000000 1.000000 
-6796.523599 -1390.584514 -288.698303 11316967.000000 3.000000 1.000000 -783987.687500 0.000000 2.000000 
-6215.162393 -1629.684000 -847.185486 4759955.000000 4.000000 4.000000 -784623.500000 0.000000 1.000000 
-6311.403909 -271.201030 -667.700409 10128929.000000 3.000000 1.000000 -784165.437500 0.000000 2.000000 
-6771.208108 -1473.413906 -408.261414 2321402.000000 7.000000 2.000000 -784775.937500 0.000000 0.000000 
-6772.074594 -1473.275600 -408.660889 2321402.000000 7.000000 3.000000 -784775.937500 0.000000 0.000000 
-6335.771584 -271.688945 -457.083923 14280499.000000 1.000000 1.000000 -783617.250000 0.000000 2.000000 
-5892.793374 -1372.721294 -15.068481 9821974.000000 7.000000 1.000000 -784210.250000 0.000000 2.000000 
-6151.973489 -203.013652 12.576416 13393386.000000 1.000000 1.000000 -783709.687500 0.000000 2.000000 
-6783.332986 -1471.478099 -413.851807 2321402.000000 7.000000 7.000000 -784775.937500 0.000000 0.000000 
-6886.271401 -349.952373 39.821777 4768349.000000 7.000000 7.000000 -784621.750000 0.000000 1.000000 
-6788.863198 -1514.851207 44.294800 11316265.000000 7.000000 5.000000 -783987.812500 0.000000 2.000000 
-5798.194253 -408.686748 -318.675415 11909524.000000 5.000000 4.000000 -783906.375000 0.000000 2.000000 
-5679.299233 -1262.337810 -17.681519 5951283.000000 6.000000 3.000000 -784571.187500 0.000000 1.000000 
-5880.794473 -751.849407 -11.135254 11314379.000000 4.000000 3.000000 -783988.125000 0.000000 2.000000 
-6704.247994 -1392.229412 -333.902100 6546421.000000 7.000000 7.000000 -784539.937500 0.000000 1.000000 
-5609.027505 -1318.093792 -17.778442 6247803.000000 5.000000 4.000000 -784557.000000 0.000000 1.000000 
-6438.118081 -282.122783 27.728516 3708534.000000 7.000000 2.000000 -784684.000000 0.000000 0.000000 
-6570.729714 -351.545757 -212.049500 3510366.000000 7.000000 5.000000 -784696.875000 0.000000 0.000000 
-5707.653848 -294.977153 -13.626465 4473582.000000 6.000000 1.000000 -784636.625000 0.000000 1.000000 
-5962.844277 -1398.241191 3.863647 10418375.000000 7.000000 2.000000 -784124.000000 0.000000 2.000000 
-5690.766396 -788.346294 -10.120361 14272863.000000 1.000000 1.000000 -783618.187500 0.000000 2.000000 
-6746.870614 -1391.644298 -328.843323 12506340.000000 1.000000 1.000000 -783811.125000 0.000000 2.000000 
-5628.145547 -626.904888 -13.764038 9526785.000000 7.000000 3.000000 -784253.375000 0.000000 2.000000 
-6147.750527 -80.183452 -871.018005 9233838.000000 7.000000 1.000000 -784295.187500 0.000000 2.000000 
-5684.693276 -1420.193004 -15.477051 3704580.000000 7.000000 5.000000 -784684.812500 0.000000 0.000000 
-6402.869485 -271.500835 -378.548828 7446202.000000 7.000000 5.000000 -784484.500000 0.000000 1.000000 
-6357.914529 -271.066753 -710.148895 8934516.000000 7.000000 3.000000 -784338.062500 0.000000 2.000000 
-5617.399331 -521.434795 -937.713303 7740066.000000 3.000000 1.000000 -784462.687500 0.000000 1.000000 
-5811.486489 -1470.522899 -218.200378 2914160.000000 7.000000 7.000000 -784737.062500 0.000000 0.000000 
-6682.188790 -1473.394695 -368.205688 2321448.000000 7.000000 2.000000 -784775.937500 0.000000 0.000000 
-6439.487527 -1391.676494 -611.995972 13985934.000000 1.000000 1.000000 -783644.250000 0.000000 2.000000 
-5745.268716 -521.523174 -16.923950 12796354.000000 1.000000 1.000000 -783777.187500 0.000000 2.000000 
-5755.928628 -80.591777 -862.227600 10723304.000000 6.000000 1.000000 -784077.312500 0.000000 2.000000 
-6663.870400 -1392.588390 -37.553955 8333168.000000 7.000000 6.000000 -784407.000000 0.000000 1.000000 
-5667.759927 -872.744915 -6.981445 6251513.000000 5.000000 1.000000 -784556.062500 0.000000 1.000000 
-5588.813149 -756.043010 -10.804932 10717488.000000 4.000000 2.000000 -784078.187500 0.000000 2.000000 
-6529.086770 -272.240825 -771.498108 8637112.000000 7.000000 7.000000 -784373.687500 0.000000 1.000000 
-6304.217996 -284.721538 20.675049 5661901.000000 6.000000 2.000000 -784580.500000 0.000000 1.000000 
-5640.850625 -847.166484 -847.130890 11014713.000000 1.000000 1.000000 -784032.625000 0.000000 2.000000 
-5867.156899 -272.510723 -441.791199 10126759.000000 5.000000 5.000000 -784165.625000 0.000000 2.000000 
-6461.185220 -271.908184 -260.408630 9532455.000000 6.000000 4.000000 -784252.812500 0.000000 2.000000 
-5665.297891 -81.949932 -978.465103 11020106.000000 5.000000 4.000000 -784031.750000 0.000000 2.000000 
-5797.915322 -1190.995311 -806.959198 3112790.000000 2.000000 1.000000 -784723.875000 0.000000 0.000000 
-5595.657144 -822.181194 -8.296265 10419497.000000 6.000000 1.000000 -784123.750000 0.000000 2.000000 
-6655.033486 -190.515483 38.215210 6554680.000000 7.000000 3.000000 -784538.187500 0.000000 1.000000 
-6403.148782 -1515.825801 25.078247 11908747.000000 6.000000 4.000000 -783906.500000 0.000000 2.000000 
-5800.260903 -272.515483 -408.376892 10126409.000000 2.000000 2.000000 -784165.625000 0.000000 2.000000 
-5872.028848 -480.237163 -16.704956 4769122.000000 6.000000 1.000000 -784621.625000 0.000000 1.000000 
-5617.420693 -172.331035 -921.045197 8634945.000000 3.000000 1.000000 -784373.812500 0.000000 1.000000 
-6456.408975 -1515.891094 29.088745 6545160.000000 7.000000 1.000000 -784540.250000 0.000000 1.000000 
-6383.994973 -1539.417400 -841.837311 3868364.000000 6.000000 3.000000 -784675.812500 0.000000 1.000000 
-6728.682107 -1451.764202 41.102173 2321493.000000 7.000000 5.000000 -784775.937500 0.000000 0.000000 
-6652.222787 -229.852397 38.381958 6554400.000000 7.000000 2.000000 -784538.187500 0.000000 1.000000 
-6562.017373 -1391.559490 -661.984802 13691024.000000 1.000000 1.000000 -783673.375000 0.000000 2.000000 
-5618.923745 -226.258892 -859.378998 12500540.000000 7.000000 7.000000 -783812.125000 0.000000 2.000000 
-6400.134500 -206.984355 25.212036 11024158.000000 4.000000 2.000000 -784031.437500 0.000000 2.000000 
-5674.228188 -289.708477 -14.520630 11018630.000000 3.000000 2.000000 -784031.937500 0.000000 2.000000 
-5774.617227 -982.361125 -9.952393 11906090.000000 2.000000 1.000000 -783906.937500 0.000000 2.000000 
-7082.534600 -1390.890605 1.929443 7440388.000000 7.000000 4.000000 -784485.437500 0.000000 1.000000 
-5662.305459 -309.208232 -14.885742 10720989.000000 4.000000 2.000000 -784077.562500 0.000000 2.000000 
-6018.718545 -1391.670391 -797.553711 13685285.000000 1.000000 1.000000 -783674.062500 0.000000 2.000000 
-5817.148721 -1350.121593 -16.558350 3870812.000000 7.000000 4.000000 -784675.625000 0.000000 1.000000 
-5797.884683 -341.509258 -624.386780 11316414.000000 4.000000 2.000000 -783987.750000 0.000000 2.000000 
-5953.597695 -271.836650 -440.078430 9530497.000000 5.000000 4.000000 -784252.937500 0.000000 2.000000 
-6303.983010 -271.471538 -700.825500 13099879.000000 2.000000 1.000000 -783742.437500 0.000000 2.000000 
-5927.533120 -844.316326 -72.732666 14571553.000000 7.000000 6.000000 -783593.187500 0.000000 2.000000 
-5616.853433 -1164.603710 -989.707794 11903785.000000 7.000000 1.000000 -783907.437500 0.000000 2.000000 
-5888.330361 -1471.532894 -395.111694 4464204.000000 7.000000 7.000000 -784638.687500 0.000000 1.000000 
-5798.544106 -543.906108 -290.953979 13092456.000000 7.000000 7.000000 -783743.437500 0.000000 2.000000 
-5701.892861 -1251.596508 -17.591553 13089791.000000 3.000000 2.000000 -783743.875000 0.000000 2.000000 
-6418.916421 -271.541851 -837.615997 9233557.000000 5.000000 4.000000 -784295.187500 0.000000 2.000000 
-5797.870034 -417.806621 -673.463104 10721132.000000 3.000000 2.000000 -784077.562500 0.000000 2.000000 
-5804.953408 -1472.684597 -437.662720 3869904.000000 7.000000 2.000000 -784675.750000 0.000000 1.000000 
-5790.508950 -1160.077495 -14.558350 6843782.000000 7.000000 2.000000 -784523.625000 0.000000 1.000000 
-5787.783853 -1420.562099 -14.417725 14571480.000000 3.000000 1.000000 -783593.187500 0.000000 2.000000 
-6615.842111 -1469.780406 -780.145111 2321495.000000 7.000000 7.000000 -784775.937500 0.000000 0.000000 
-6560.500527 -1456.152202 32.436157 9526082.000000 7.000000 6.000000 -784253.500000 0.000000 2.000000 
-6671.977090 -290.543560 -848.188812 14580171.000000 1.000000 1.000000 -783592.187500 0.000000 2.000000 
-5768.304482 -313.088848 -14.457886 9827786.000000 7.000000 2.000000 -784209.250000 0.000000 2.000000 
-5876.560342 -1108.657085 -14.116699 11312278.000000 6.000000 4.000000 -783988.500000 0.000000 2.000000 
-5798.123818 -588.244854 -423.470886 11611743.000000 4.000000 3.000000 -783945.812500 0.000000 2.000000 
-5797.909097 -1253.306987 -716.333710 3871585.000000 3.000000 2.000000 -784675.500000 0.000000 1.000000 
-6004.735757 -207.877300 6.393921 5959892.000000 4.000000 1.000000 -784568.187500 0.000000 1.000000 
-5616.922769 -743.649700 -855.178009 11905816.000000 7.000000 1.000000 -783907.000000 0.000000 2.000000 
-6737.688912 -271.410015 -301.477783 10429227.000000 3.000000 1.000000 -784122.625000 0.000000 2.000000 
-6366.022927 -270.233379 -790.300507 7148704.000000 7.000000 3.000000 -784503.562500 0.000000 1.000000 
-5927.508462 -897.732708 -278.010620 14571694.000000 7.000000 6.000000 -783593.125000 0.000000 2.000000 
-5927.132852 -1155.282299 -141.153198 14572322.000000 7.000000 7.000000 -783593.062500 0.000000 2.000000 
-5482.215127 -1464.325496 40.506592 7733061.000000 4.000000 4.000000 -784464.187500 0.000000 1.000000 
-6912.934396 -1391.582408 -263.243713 14287142.000000 1.000000 1.000000 -783616.500000 0.000000 2.000000 
-6102.678689 -263.977275 11.494019 3511424.000000 7.000000 1.000000 -784696.562500 0.000000 0.000000 
-6217.510598 -1561.558902 -843.296295 5057735.000000 5.000000 3.000000 -784609.000000 0.000000 1.000000 
-5556.624307 -1118.152874 -14.488525 12496261.000000 3.000000 3.000000 -783813.500000 0.000000 2.000000 
-6496.174478 -270.981670 -546.542725 8934935.000000 7.000000 3.000000 -784338.062500 0.000000 2.000000 
-5594.932656 -1420.058895 -14.876465 8925273.000000 7.000000 3.000000 -784339.312500 0.000000 2.000000 
-5720.751016 -1618.983200 -845.680603 3308521.000000 6.000000 2.000000 -784710.812500 0.000000 0.000000 
-6178.157571 -82.930400 -849.378204 5663515.000000 6.000000 6.000000 -784579.812500 0.000000 1.000000 
-6094.621011 -271.662700 -510.083679 8635852.000000 7.000000 7.000000 -784373.750000 0.000000 1.000000 
-5947.503457 -166.361553 -843.767395 7743495.000000 4.000000 2.000000 -784462.250000 0.000000 1.000000 
-5860.396646 -1613.478599 -845.870605 5651546.000000 7.000000 7.000000 -784584.625000 0.000000 1.000000 
-6252.625894 -304.548687 18.378052 9531474.000000 7.000000 2.000000 -784252.875000 0.000000 2.000000 
-6475.991921 -271.723491 -548.342529 12509986.000000 1.000000 1.000000 -783810.750000 0.000000 2.000000 
-6531.307412 -1469.682003 -300.595703 2321540.000000 7.000000 7.000000 -784775.937500 0.000000 0.000000 
-6965.402398 -271.599346 -101.202515 11622729.000000 1.000000 1.000000 -783944.750000 0.000000 2.000000 
-5665.499673 -915.134380 -9.279297 6251163.000000 5.000000 4.000000 -784556.187500 0.000000 1.000000 
-6096.657998 -1460.201793 9.593018 2913975.000000 7.000000 5.000000 -784737.062500 0.000000 0.000000 
-6508.539529 -1473.253200 -726.700500 2321541.000000 7.000000 3.000000 -784775.937500 0.000000 0.000000 
-5822.054849 -823.171184 -9.462158 9824775.000000 7.000000 5.000000 -784209.687500 0.000000 2.000000 
-5618.425332 -356.500347 -980.052994 13090571.000000 7.000000 7.000000 -783743.687500 0.000000 2.000000 
-5617.899453 -223.423809 -950.589294 7147937.000000 2.000000 1.000000 -784503.625000 0.000000 1.000000 
-6307.704690 -328.414531 19.406372 6553491.000000 6.000000 6.000000 -784538.375000 0.000000 1.000000 
-6638.862893 -271.713848 -451.035828 12511595.000000 1.000000 1.000000 -783810.625000 0.000000 2.000000 
-6526.204324 -1470.352901 -735.680389 2321541.000000 7.000000 7.000000 -784775.937500 0.000000 0.000000 
-6220.549600 -271.598979 -433.217712 11617413.000000 1.000000 1.000000 -783945.062500 0.000000 2.000000 
-6493.192178 -272.669414 -121.107422 9831215.000000 5.000000 5.000000 -784209.062500 0.000000 2.000000 
-6531.757119 -1469.441204 -738.503204 2321541.000000 7.000000 7.000000 -784775.937500 0.000000 0.000000 
-6155.626992 -1390.199993 12.848389 7438080.000000 7.000000 1.000000 -784486.062500 0.000000 1.000000 
-5798.859170 -784.330730 -523.324280 11313542.000000 5.000000 5.000000 -783988.250000 0.000000 2.000000 
-6433.826882 -1392.579998 -77.250000 8034479.000000 7.000000 7.000000 -784437.812500 0.000000 1.000000 
-6593.438394 -271.733501 -495.100403 13398988.000000 2.000000 2.000000 -783709.000000 0.000000 2.000000 
-5707.672158 -1114.944316 -12.776001 3113202.000000 7.000000 1.000000 -784723.750000 0.000000 0.000000 
-6967.225701 -238.363262 53.269653 13403744.000000 1.000000 1.000000 -783708.625000 0.000000 2.000000 
-6560.523477 -271.727397 -663.842896 13398569.000000 2.000000 2.000000 -783709.000000 0.000000 2.000000 
-5991.542520 -1553.525302 4.475464 6841401.000000 6.000000 4.000000 -784524.187500 0.000000 1.000000 
-5887.367349 -1217.747814 -17.637939 11014357.000000 6.000000 6.000000 -784032.687500 0.000000 2.000000 
-5826.346230 -348.462017 -14.489624 3313808.000000 7.000000 1.000000 -784709.625000 0.000000 0.000000 
-6397.065530 -271.631084 -349.510193 8338981.000000 7.000000 4.000000 -784406.312500 0.000000 1.000000 
-6271.195779 -1404.324810 19.018066 10718045.000000 7.000000 3.000000 -784078.125000 0.000000 2.000000 
-6729.568185 -1393.083599 -33.371216 5951350.000000 7.000000 7.000000 -784571.187500 0.000000 1.000000 
-6090.451394 -82.054180 -852.415710 8339404.000000 7.000000 7.000000 -784406.250000 0.000000 1.000000 
-5927.812783 -1555.641597 -23.077515 2321586.000000 6.000000 1.000000 -784775.937500 0.000000 0.000000 
-6725.307107 -1391.579204 -256.952026 12209049.000000 1.000000 1.000000 -783867.812500 0.000000 2.000000 
-6012.451455 -162.467388 -844.386902 11021994.000000 2.000000 2.000000 -784031.562500 0.000000 2.000000 
