ply
format ascii 1.0
comment Created by CloudCompare v2.12 alpha
comment Created 6/6/2021 12:43 AM
obj_info Generated by CloudCompare!
element vertex 506
property double x
property double y
property double z
property float scalar_fullwaveIndex
property float scalar_NumberOfReturns
property float scalar_ReturnNumber
property float scalar_GpsTime
property float scalar_Intensity
end_header
5910.730430 -1164.969585 -108.029541 387362.000000 6.000000 3.000000 -727538.812500 0.000000 
6204.959922 -1471.554897 -337.365295 392057.000000 1.000000 1.000000 -727538.187500 28.000000 
6048.163047 -1061.689983 -12.870361 998577.000000 1.000000 1.000000 -727403.562500 0.000000 
6693.733359 -1471.520107 -205.625427 197653.000000 1.000000 1.000000 -727575.250000 21.000000 
6147.415000 -182.161113 -15.492554 7911447.000000 5.000000 4.000000 -726655.875000 0.000000 
6002.195273 -1101.469829 -582.898010 795490.000000 5.000000 4.000000 -727450.937500 0.000000 
6965.397422 -311.690776 42.877197 4342483.000000 7.000000 5.000000 -726986.875000 0.000000 
6845.351523 -352.616558 -334.914429 3783239.000000 7.000000 2.000000 -727019.937500 0.000000 
6517.457969 -1471.051403 -293.934082 2997057.000000 7.000000 7.000000 -727075.187500 0.000000 
6583.732383 -1392.998699 -231.639099 6930443.000000 7.000000 7.000000 -726809.312500 0.000000 
7013.457969 -1471.540203 -503.734924 3393115.000000 7.000000 5.000000 -727047.562500 0.000000 
6791.523398 -351.394390 -463.578979 3585394.000000 7.000000 6.000000 -727034.937500 0.000000 
6002.022422 -1446.253093 -285.967529 797006.000000 3.000000 2.000000 -727450.562500 0.000000 
6602.810508 -1592.810001 -844.891998 2206181.000000 1.000000 1.000000 -727147.250000 0.000000 
6864.616172 -1390.523815 -258.562805 5738584.000000 7.000000 3.000000 -726908.375000 0.000000 
6143.575156 -1471.732799 -109.402954 2004929.000000 3.000000 1.000000 -727177.687500 0.000000 
6002.152305 -1209.053813 -368.674377 10275435.000000 1.000000 1.000000 -726334.937500 0.000000 
6112.652305 -81.522441 -904.125595 8894654.000000 7.000000 4.000000 -726505.000000 0.000000 
6695.673789 -1479.402202 -1.699829 197696.000000 1.000000 1.000000 -727575.250000 4.000000 
5822.139609 -1134.242900 -991.563293 1198045.000000 1.000000 1.000000 -727351.812500 0.000000 
5996.954062 -630.278911 -838.658295 592075.000000 2.000000 1.000000 -727496.562500 0.000000 
5975.936484 -348.117290 -15.799927 1596352.000000 1.000000 1.000000 -727257.187500 0.000000 
6695.916953 -1471.504604 -270.632629 197700.000000 1.000000 1.000000 -727575.250000 22.000000 
6002.033164 -1055.288005 -482.393494 997892.000000 2.000000 1.000000 -727403.812500 0.000000 
6178.719687 -1562.159702 -7.219116 2204523.000000 7.000000 2.000000 -727147.375000 0.000000 
5839.212852 -174.139141 -848.301788 5136356.000000 4.000000 4.000000 -726945.750000 0.000000 
5997.122031 -311.843364 -14.995239 994619.000000 6.000000 3.000000 -727404.937500 0.000000 
6935.712852 -270.370952 -499.786987 6925614.000000 7.000000 2.000000 -726810.000000 0.000000 
5853.904258 -736.017803 -846.679901 792317.000000 1.000000 1.000000 -727452.062500 0.000000 
5877.692344 -1419.911205 -845.266907 385625.000000 1.000000 1.000000 -727539.375000 0.000000 
6696.122031 -1471.533000 -750.240204 197708.000000 1.000000 1.000000 -727575.250000 29.000000 
5822.186484 -955.668071 -902.906494 8897598.000000 1.000000 1.000000 -726504.812500 0.000000 
7184.237266 -263.907085 55.254517 3190115.000000 6.000000 1.000000 -727061.187500 0.000000 
7027.591758 -1471.484996 -16.519531 812733.000000 1.000000 1.000000 -727448.625000 5.000000 
6590.688437 -286.010845 24.517212 5733800.000000 6.000000 3.000000 -726909.750000 0.000000 
5822.261680 -1230.089885 -947.664597 7719124.000000 1.000000 1.000000 -726688.750000 0.000000 
6697.820273 -1479.400798 -1.593750 197742.000000 1.000000 1.000000 -727575.250000 4.000000 
6805.637656 -1471.519405 -124.393677 404474.000000 1.000000 1.000000 -727537.062500 21.000000 
6698.022422 -1471.547695 -138.424927 197744.000000 1.000000 1.000000 -727575.250000 20.000000 
6198.471641 -274.029033 -822.631989 10666850.000000 7.000000 7.000000 -726297.250000 0.000000 
6251.871055 -1472.393703 -141.051514 2798660.000000 7.000000 3.000000 -727088.937500 0.000000 
7003.729453 -352.857769 -285.926270 4541388.000000 7.000000 3.000000 -726976.312500 0.000000 
5822.276328 -1312.854290 -954.112900 7523026.000000 2.000000 2.000000 -726722.125000 0.000000 
6071.690391 -1457.392604 -14.406860 3787058.000000 7.000000 4.000000 -727019.187500 0.000000 
6713.654258 -1471.516506 -800.144989 402691.000000 1.000000 1.000000 -727537.250000 21.000000 
6121.558555 -1471.488597 -131.562988 1002766.000000 1.000000 1.000000 -727402.562500 9.000000 
7004.706016 -265.421245 45.436890 803807.000000 7.000000 2.000000 -727449.562500 0.000000 
6765.304648 -1471.528301 -801.942108 403703.000000 1.000000 1.000000 -727537.125000 21.000000 
6556.261680 -1470.943798 -398.525085 2799304.000000 7.000000 7.000000 -727088.875000 0.000000 
6698.305625 -1471.532299 -807.795990 197755.000000 1.000000 1.000000 -727575.250000 29.000000 
6038.072227 -403.964580 -61.870361 7715855.000000 7.000000 5.000000 -726689.125000 0.000000 
6928.663047 -1392.256389 -426.154724 6135794.000000 7.000000 7.000000 -726883.125000 0.000000 
6593.949180 -1504.493099 24.923462 807627.000000 4.000000 1.000000 -727449.125000 0.000000 
7178.755820 -1524.820507 53.187866 4745351.000000 7.000000 6.000000 -726963.875000 0.000000 
6699.965781 -1479.401393 -1.487061 197788.000000 1.000000 1.000000 -727575.250000 4.000000 
6284.369102 -131.526226 -844.493500 6926168.000000 6.000000 1.000000 -726809.937500 0.000000 
6078.219687 -1471.527599 -634.101013 389394.000000 1.000000 1.000000 -727538.437500 26.000000 
7002.980430 -1471.481700 -382.974609 1013116.000000 1.000000 1.000000 -727401.250000 1.000000 
6700.232383 -1471.507106 -270.436096 197792.000000 1.000000 1.000000 -727575.250000 22.000000 
6001.647422 -876.701274 -225.414429 794749.000000 5.000000 1.000000 -727451.187500 0.000000 
6725.103477 -1471.546001 -374.022888 402914.000000 1.000000 1.000000 -727537.187500 24.000000 
6303.594687 -1471.509700 -438.823120 598835.000000 1.000000 1.000000 -727495.562500 22.000000 
6700.334922 -1471.516201 -516.731873 197796.000000 1.000000 1.000000 -727575.250000 27.000000 
6379.765586 -1431.274593 14.264648 3589718.000000 6.000000 2.000000 -727034.125000 0.000000 
6002.172812 -644.149883 -816.178986 10864742.000000 1.000000 1.000000 -726276.375000 0.000000 
7274.381797 -1471.482097 -0.560547 412431.000000 1.000000 1.000000 -727536.125000 11.000000 
6720.336875 -1471.508907 -132.033020 402818.000000 1.000000 1.000000 -727537.187500 23.000000 
6202.157187 -1532.988002 -22.084839 596988.000000 7.000000 6.000000 -727495.812500 0.000000 
6276.143516 -272.127300 -688.512909 7321959.000000 5.000000 4.000000 -726755.937500 0.000000 
6039.472617 -270.934062 -431.603516 7322418.000000 5.000000 2.000000 -726755.875000 0.000000 
5961.693320 -730.467388 -11.723999 5935419.000000 7.000000 5.000000 -726896.750000 0.000000 
6700.265586 -1561.531597 26.279297 197833.000000 1.000000 1.000000 -727575.250000 17.000000 
6260.993125 -80.647441 -891.996490 9091304.000000 7.000000 3.000000 -726477.750000 0.000000 
6022.470664 -1471.513195 -460.310791 388241.000000 1.000000 1.000000 -727538.625000 26.000000 
5906.658164 -1298.962200 -17.816040 2002169.000000 1.000000 1.000000 -727178.125000 0.000000 
6002.220664 -1309.851604 -471.387390 9291771.000000 1.000000 1.000000 -726451.250000 0.000000 
7114.187461 -238.441509 51.004639 3585484.000000 7.000000 3.000000 -727034.875000 0.000000 
6698.303672 -1553.947200 29.868774 6136805.000000 7.000000 4.000000 -726882.875000 0.000000 
6329.604453 -88.102642 -849.122711 5335075.000000 5.000000 5.000000 -726934.000000 0.000000 
6582.256797 -350.823833 -317.330200 4938645.000000 7.000000 7.000000 -726955.875000 0.000000 
6234.629844 -1471.503200 -370.988525 801515.000000 1.000000 1.000000 -727449.937500 13.000000 
6773.916953 -1509.376705 -841.515015 4148872.000000 5.000000 5.000000 -726996.687500 0.000000 
6899.670859 -273.021953 -593.856079 6131103.000000 7.000000 7.000000 -726884.062500 0.000000 
7166.500937 -278.570415 54.463989 5137317.000000 7.000000 1.000000 -726945.375000 0.000000 
6745.358359 -1471.473903 -301.864624 809379.000000 1.000000 1.000000 -727448.937500 7.000000 
6702.621055 -1471.530406 -807.629211 197847.000000 1.000000 1.000000 -727575.187500 29.000000 
6639.252891 -1471.463207 -131.820190 1210227.000000 1.000000 1.000000 -727349.250000 1.000000 
6002.135703 -1409.632793 -607.573792 1604593.000000 1.000000 1.000000 -727255.312500 0.000000 
5850.793906 -240.906841 -845.691895 5534900.000000 3.000000 1.000000 -726923.687500 0.000000 
6194.058555 -1471.514507 -220.898071 391825.000000 1.000000 1.000000 -727538.187500 27.000000 
7177.063437 -224.078350 54.454224 5335807.000000 7.000000 2.000000 -726933.437500 0.000000 
6006.638633 -1471.527797 -80.553467 797233.000000 1.000000 1.000000 -727450.562500 21.000000 
7072.791953 -1471.517101 -348.812927 611805.000000 1.000000 1.000000 -727494.250000 9.000000 
6002.183555 -686.268108 -691.042786 7324075.000000 1.000000 1.000000 -726755.812500 0.000000 
6539.285117 -1471.512004 -498.656494 399144.000000 1.000000 1.000000 -727537.500000 27.000000 
7189.552695 -1471.509304 -82.625244 411144.000000 1.000000 1.000000 -727536.250000 13.000000 
6041.342734 -1470.867702 -333.684875 4148136.000000 7.000000 7.000000 -726996.750000 0.000000 
6619.652305 -1471.335704 -352.268921 1808324.000000 4.000000 3.000000 -727212.750000 0.000000 
6204.495078 -1471.525905 -563.898071 596813.000000 1.000000 1.000000 -727495.812500 22.000000 
6542.100547 -245.553936 -7.550659 7714475.000000 7.000000 7.000000 -726689.187500 0.000000 
6100.392539 -1585.973300 -844.401398 389490.000000 1.000000 1.000000 -727538.437500 1.000000 
6866.943320 -272.995586 -531.268616 5932383.000000 7.000000 7.000000 -726897.312500 0.000000 
5855.620078 -1661.494900 -949.471497 589138.000000 1.000000 1.000000 -727497.500000 17.000000 
7141.996055 -1392.997997 -5.999756 5539633.000000 7.000000 7.000000 -726922.125000 0.000000 
6001.827109 -549.384746 -191.765625 592114.000000 7.000000 4.000000 -727496.500000 0.000000 
6700.286094 -1661.536800 -906.405807 197895.000000 1.000000 1.000000 -727575.187500 37.000000 
6700.308555 -1661.560700 -957.461700 197896.000000 1.000000 1.000000 -727575.187500 36.000000 
5855.417930 -1283.358593 -846.540497 997023.000000 1.000000 1.000000 -727404.062500 3.000000 
6147.160117 -1561.536800 -3.834351 800590.000000 1.000000 1.000000 -727450.062500 21.000000 
7204.027305 -351.575542 -224.203186 2794701.000000 7.000000 5.000000 -727089.625000 0.000000 
6213.334922 -1661.466000 -870.158997 1408864.000000 1.000000 1.000000 -727301.625000 0.000000 
5929.460898 -331.844341 -841.267395 6530201.000000 4.000000 1.000000 -726853.125000 0.000000 
6671.719687 -83.138652 -850.761597 6329226.000000 6.000000 6.000000 -726869.750000 0.000000 
7100.471641 -1471.528301 -160.276794 409719.000000 1.000000 1.000000 -727536.375000 15.000000 
6706.756797 -1471.549099 -395.690674 197932.000000 1.000000 1.000000 -727575.187500 25.000000 
6850.435508 -1661.443400 -990.099792 3591376.000000 7.000000 7.000000 -727034.000000 0.000000 
6568.962852 -1661.654200 -997.447098 2998255.000000 7.000000 7.000000 -727075.062500 0.000000 
6687.594687 -272.238140 -736.593811 5534852.000000 4.000000 4.000000 -726923.687500 0.000000 
6163.089805 -1471.680202 -638.997406 3194214.000000 7.000000 5.000000 -727060.500000 0.000000 
6501.620078 -80.707500 -971.870193 6925570.000000 7.000000 3.000000 -726810.000000 0.000000 
6580.469687 -1490.001598 24.639404 6335341.000000 7.000000 2.000000 -726868.875000 0.000000 
6002.146445 -1442.460704 -395.400513 1404445.000000 1.000000 1.000000 -727302.312500 1.000000 
6418.293906 -1520.503398 -12.331421 601404.000000 7.000000 5.000000 -727495.312500 0.000000 
6259.656211 -1470.590602 -534.256470 3949416.000000 7.000000 7.000000 -727008.750000 0.000000 
5835.573203 -1450.643306 -14.721069 1803633.000000 1.000000 1.000000 -727213.875000 1.000000 
6568.176719 -1509.841899 -840.418793 1210003.000000 1.000000 1.000000 -727349.250000 2.000000 
6326.318320 -134.224956 -845.450012 5335305.000000 5.000000 2.000000 -726933.937500 0.000000 
6249.245078 -1500.492305 8.520752 5938638.000000 6.000000 1.000000 -726896.062500 0.000000 
7067.255820 -351.546001 -412.736023 3388100.000000 7.000000 5.000000 -727048.250000 0.000000 
6305.879844 -1471.514705 -438.873230 598881.000000 1.000000 1.000000 -727495.562500 22.000000 
6002.260703 -849.502422 -786.897888 1599808.000000 1.000000 1.000000 -727256.375000 0.000000 
6002.171836 -325.504009 -493.984802 9289057.000000 1.000000 1.000000 -726451.500000 0.000000 
5888.526328 -1661.471100 -861.763306 1203843.000000 1.000000 1.000000 -727350.250000 1.000000 
5957.430625 -802.082927 -10.355957 6730988.000000 7.000000 6.000000 -726833.500000 0.000000 
6088.683555 -1461.695797 84.092041 6733333.000000 7.000000 1.000000 -726833.062500 0.000000 
6053.682578 -1471.510997 -341.958191 388883.000000 1.000000 1.000000 -727538.500000 27.000000 
6718.206016 -351.768901 -205.598022 2396893.000000 4.000000 2.000000 -727123.437500 0.000000 
6598.913047 -1507.826702 24.629150 4347590.000000 6.000000 4.000000 -726985.687500 0.000000 
6204.050742 -1471.471202 -414.657776 1004011.000000 1.000000 1.000000 -727402.375000 5.000000 
6276.601523 -346.593120 8.192627 6529692.000000 6.000000 5.000000 -726853.187500 0.000000 
6002.190391 -812.816021 -832.248413 10471350.000000 1.000000 1.000000 -726315.875000 0.000000 
7034.093711 -303.750469 46.864258 1403884.000000 5.000000 2.000000 -727302.500000 0.000000 
6795.711875 -1472.535793 -773.432892 2205858.000000 7.000000 1.000000 -727147.312500 0.000000 
6218.593711 -271.507793 -651.012787 7715075.000000 5.000000 3.000000 -726689.187500 0.000000 
6327.425742 -1471.501293 -540.406982 803127.000000 1.000000 1.000000 -727449.687500 10.000000 
6801.442344 -1481.914394 -838.915802 607948.000000 1.000000 1.000000 -727494.625000 2.000000 
6300.112266 -1661.528900 -864.141998 4149287.000000 7.000000 7.000000 -726996.687500 0.000000 
6973.201133 -1471.465602 -11.310181 812135.000000 1.000000 1.000000 -727448.687500 6.000000 
6711.023398 -1471.506404 -269.922913 198022.000000 1.000000 1.000000 -727575.187500 22.000000 
6002.358359 -378.609722 -533.482727 6530292.000000 3.000000 3.000000 -726853.125000 0.000000 
6224.386680 -1661.510400 -926.001404 392206.000000 1.000000 1.000000 -727538.187500 28.000000 
6821.734336 -1661.493500 -974.318207 812469.000000 1.000000 1.000000 -727448.687500 2.000000 
6183.060508 -79.995220 -871.622009 7124796.000000 7.000000 1.000000 -726787.875000 0.000000 
6935.025352 -350.545757 -57.381470 2397628.000000 3.000000 3.000000 -727123.312500 0.000000 
6711.176719 -1471.553493 -633.845703 198028.000000 1.000000 1.000000 -727575.187500 28.000000 
6711.202109 -1471.540203 -691.881195 198029.000000 1.000000 1.000000 -727575.187500 28.000000 
6780.037070 -351.661602 -138.006287 2198632.000000 2.000000 1.000000 -727148.375000 0.000000 
6445.925742 -81.522686 -938.717102 7910668.000000 6.000000 3.000000 -726655.875000 0.000000 
6771.295859 -1660.390100 -942.192902 2405177.000000 7.000000 7.000000 -727122.312500 0.000000 
6611.446250 -1661.528000 -921.285095 401544.000000 1.000000 1.000000 -727537.312500 25.000000 
6001.984336 -1470.399593 -365.537109 2203053.000000 2.000000 1.000000 -727147.562500 0.000000 
6136.203086 -272.187725 -655.697205 7715213.000000 5.000000 4.000000 -726689.187500 0.000000 
6121.682578 -1661.556900 -877.583191 389721.000000 1.000000 1.000000 -727538.437500 29.000000 
5920.259727 -1280.406688 -18.268433 5739275.000000 7.000000 5.000000 -726908.187500 0.000000 
6025.978477 -270.877788 -642.970490 5734033.000000 7.000000 5.000000 -726909.687500 0.000000 
6790.229453 -1470.611095 -834.031311 2007552.000000 7.000000 7.000000 -727177.437500 0.000000 
5960.307578 -1298.186290 -17.592529 3948219.000000 7.000000 4.000000 -727008.937500 0.000000 
7279.942344 -1495.106594 58.573242 2405172.000000 3.000000 3.000000 -727122.312500 0.000000 
5969.350547 -1093.598308 -14.645752 3785126.000000 6.000000 6.000000 -727019.500000 0.000000 
6375.794883 -256.019878 13.474487 4341518.000000 6.000000 4.000000 -726987.062500 0.000000 
6299.954062 -1563.584301 -842.027802 4347731.000000 6.000000 1.000000 -726985.687500 0.000000 
6551.681602 -1392.751598 -25.174072 5540186.000000 7.000000 7.000000 -726922.000000 0.000000 
5883.251914 -82.950420 -943.421494 8108100.000000 5.000000 5.000000 -726623.437500 0.000000 
6451.409141 -1471.453807 -834.027710 805154.000000 1.000000 1.000000 -727449.375000 6.000000 
6002.217734 -1227.885906 -323.982605 7718754.000000 1.000000 1.000000 -726688.812500 0.000000 
6002.293906 -383.621929 -740.967285 6132577.000000 2.000000 2.000000 -726883.875000 0.000000 
6102.204062 -980.571392 41.267944 796586.000000 4.000000 4.000000 -727450.687500 0.000000 
6566.992148 -351.478740 -167.772583 1000646.000000 1.000000 1.000000 -727403.062500 4.000000 
6882.253867 -1480.019603 7.970581 609178.000000 7.000000 7.000000 -727494.500000 0.000000 
6128.382773 -1470.954097 -390.294373 3787197.000000 7.000000 6.000000 -727019.187500 0.000000 
6427.455039 -1471.534099 -92.477539 396791.000000 1.000000 1.000000 -727537.750000 26.000000 
6522.246055 -271.517559 -255.406799 8107868.000000 6.000000 3.000000 -726623.437500 0.000000 
7150.575156 -1560.797802 36.831177 4149329.000000 7.000000 7.000000 -726996.687500 0.000000 
6789.294883 -238.512554 33.140259 3782686.000000 7.000000 7.000000 -727020.000000 0.000000 
6001.833945 -891.844097 -397.009094 794797.000000 5.000000 2.000000 -727451.125000 0.000000 
6002.232383 -1199.981792 -635.563721 7718663.000000 1.000000 1.000000 -726688.812500 0.000000 
6233.044883 -1632.298000 -846.883209 1006132.000000 1.000000 1.000000 -727402.062500 4.000000 
6092.081016 -1556.521801 -842.873810 1406564.000000 1.000000 1.000000 -727301.937500 2.000000 
6604.044883 -1471.505107 -126.452576 807445.000000 1.000000 1.000000 -727449.125000 10.000000 
5822.196250 -898.711284 -959.746704 7521600.000000 1.000000 1.000000 -726722.375000 0.000000 
6070.889609 -814.326702 -8.331177 4542769.000000 7.000000 1.000000 -726976.062500 0.000000 
6715.519492 -1471.549297 -691.705292 198121.000000 1.000000 1.000000 -727575.187500 28.000000 
6196.333945 -1471.539394 -453.369080 391875.000000 1.000000 1.000000 -727538.187500 28.000000 
6622.996055 -1527.389904 25.920044 1009985.000000 1.000000 1.000000 -727401.500000 0.000000 
6118.551719 -272.273540 -594.409180 8305071.000000 6.000000 4.000000 -726592.312500 0.000000 
6002.026328 -980.869670 -544.863220 795075.000000 5.000000 3.000000 -727451.062500 0.000000 
5922.710898 -879.598186 -8.289551 2992227.000000 2.000000 1.000000 -727075.937500 0.000000 
6002.508750 -725.757305 -775.218109 996237.000000 4.000000 4.000000 -727404.375000 0.000000 
6768.119102 -1470.971904 -780.467285 3195179.000000 7.000000 7.000000 -727060.437500 0.000000 
6084.512656 -786.809673 -108.520874 9093510.000000 7.000000 4.000000 -726477.625000 0.000000 
6139.667930 -1661.860900 -942.498993 2205217.000000 7.000000 4.000000 -727147.312500 0.000000 
6717.474570 -1471.522396 -204.472412 198159.000000 1.000000 1.000000 -727575.187500 21.000000 
6758.544883 -271.514385 -300.450623 7714246.000000 5.000000 3.000000 -726689.187500 0.000000 
6792.822227 -272.255352 -721.207092 6727263.000000 7.000000 7.000000 -726833.937500 0.000000 
6102.029258 -1471.509700 -502.312988 799079.000000 1.000000 1.000000 -727450.250000 13.000000 
6837.157187 -352.864360 -59.671753 3189794.000000 7.000000 1.000000 -727061.250000 0.000000 
6102.174766 -862.244182 15.447754 998162.000000 2.000000 2.000000 -727403.687500 0.000000 
5862.461875 -1449.846508 -14.591309 5740195.000000 7.000000 4.000000 -726907.937500 0.000000 
6717.653281 -1471.552898 -633.572998 198166.000000 1.000000 1.000000 -727575.187500 28.000000 
6839.752891 -1471.522899 -369.079224 405122.000000 1.000000 1.000000 -727537.000000 22.000000 
5821.921836 -923.368022 -914.826797 1798944.000000 2.000000 1.000000 -727215.125000 0.000000 
6250.805625 -1476.959102 7.361816 1206455.000000 1.000000 1.000000 -727349.750000 1.000000 
7163.599570 -209.932476 53.163086 3189839.000000 6.000000 3.000000 -727061.250000 0.000000 
6521.831016 -1470.800304 -691.808899 1807866.000000 4.000000 4.000000 -727212.875000 0.000000 
6065.958945 -1477.492000 -838.742706 1204255.000000 1.000000 1.000000 -727350.125000 3.000000 
7071.296836 -1389.985698 -12.328735 5738353.000000 7.000000 1.000000 -726908.437500 0.000000 
6593.594687 -1471.548793 -130.013794 604350.000000 1.000000 1.000000 -727495.000000 19.000000 
6307.426719 -161.164653 -845.261414 5136493.000000 5.000000 5.000000 -726945.687500 0.000000 
6225.805625 -1466.940502 6.108887 1004282.000000 1.000000 1.000000 -727402.312500 1.000000 
6903.289023 -1389.986492 -280.906006 5738538.000000 7.000000 1.000000 -726908.375000 0.000000 
5822.110312 -1599.225601 -915.083603 998728.000000 2.000000 2.000000 -727403.562500 0.000000 
6719.684531 -1471.547802 -332.999512 198207.000000 1.000000 1.000000 -727575.187500 24.000000 
6685.729453 -1660.973700 -974.126602 1810259.000000 7.000000 6.000000 -727212.562500 0.000000 
6002.561484 -387.277812 -672.184204 793602.000000 5.000000 5.000000 -727451.500000 0.000000 
6854.482383 -1471.524105 -368.443970 405398.000000 1.000000 1.000000 -727536.937500 22.000000 
6287.253867 -1471.512706 -682.544495 393811.000000 1.000000 1.000000 -727538.000000 27.000000 
6102.099570 -865.948894 4.241943 4742041.000000 1.000000 1.000000 -726965.062500 0.000000 
6163.420859 -1471.501995 -153.807129 800224.000000 1.000000 1.000000 -727450.125000 17.000000 
6294.593711 -1471.524807 -771.283112 598656.000000 1.000000 1.000000 -727495.625000 17.000000 
6045.939414 -1446.070705 -13.634766 5342065.000000 7.000000 1.000000 -726931.750000 0.000000 
6051.863242 -1351.102489 -16.539063 4147537.000000 7.000000 4.000000 -726996.875000 0.000000 
6713.446250 -1661.536100 -905.853104 198217.000000 1.000000 1.000000 -727575.187500 37.000000 
6838.497031 -219.695659 -841.630188 5534576.000000 6.000000 5.000000 -726923.750000 0.000000 
6037.665000 -1132.592388 -14.137451 5539451.000000 7.000000 3.000000 -726922.125000 0.000000 
5986.885703 -635.438701 -12.810547 5934913.000000 7.000000 1.000000 -726896.875000 0.000000 
6432.034141 -1471.504299 -618.705811 396892.000000 1.000000 1.000000 -727537.687500 27.000000 
5950.209922 -1127.246807 -14.558105 2200061.000000 1.000000 1.000000 -727148.062500 0.000000 
6736.540000 -1610.379402 -845.231812 3950520.000000 6.000000 2.000000 -727008.625000 0.000000 
6772.376914 -1496.958202 3.290039 607614.000000 7.000000 2.000000 -727494.625000 0.000000 
6721.842734 -1471.559307 -332.895813 198253.000000 1.000000 1.000000 -727575.187500 24.000000 
7197.983359 -350.468975 -130.500488 3388329.000000 7.000000 7.000000 -727048.187500 0.000000 
6741.173789 -302.647075 31.616211 2396708.000000 2.000000 2.000000 -727123.437500 0.000000 
6419.497031 -352.080791 -133.361511 3944538.000000 7.000000 3.000000 -727009.750000 0.000000 
6002.226523 -1095.934001 -677.339691 7325547.000000 1.000000 1.000000 -726755.625000 0.000000 
5854.379844 -1143.367290 -14.911987 1800964.000000 1.000000 1.000000 -727214.687500 1.000000 
6753.512656 -352.499248 -10.257568 3189610.000000 7.000000 2.000000 -727061.312500 0.000000 
6247.221641 -1533.264598 -20.102295 597954.000000 7.000000 2.000000 -727495.687500 0.000000 
6597.549766 -1470.533306 -357.620483 2997195.000000 7.000000 7.000000 -727075.187500 0.000000 
6084.711875 -902.510906 -8.697144 4543229.000000 7.000000 4.000000 -726976.000000 0.000000 
6336.865195 -269.045879 -828.046814 10469832.000000 7.000000 1.000000 -726316.000000 0.000000 
6427.583945 -80.903545 -964.052902 7320948.000000 5.000000 2.000000 -726755.937500 0.000000 
6002.096641 -1308.484111 -262.598816 999547.000000 1.000000 1.000000 -727403.312500 1.000000 
6002.213828 -1212.700695 -554.764099 2001987.000000 1.000000 1.000000 -727178.187500 0.000000 
6084.548789 -896.440105 -9.244995 6532452.000000 7.000000 6.000000 -726852.750000 0.000000 
6002.167930 -783.623394 -668.408813 7520817.000000 1.000000 1.000000 -726722.437500 0.000000 
6542.755820 -1483.683498 -839.042603 1209497.000000 1.000000 1.000000 -727349.312500 2.000000 
6136.470664 -1471.474697 -54.486206 1002995.000000 1.000000 1.000000 -727402.562500 9.000000 
6213.539023 -1470.790798 -372.299805 2005252.000000 3.000000 3.000000 -727177.625000 0.000000 
6723.747031 -1471.593303 -227.015015 1808783.000000 2.000000 1.000000 -727212.687500 0.000000 
6841.825156 -189.944805 -843.202301 5534438.000000 6.000000 5.000000 -726923.812500 0.000000 
6177.732383 -1471.507106 -197.300598 596255.000000 1.000000 1.000000 -727495.875000 27.000000 
6950.235312 -270.106548 -282.703003 7713970.000000 5.000000 1.000000 -726689.187500 0.000000 
6285.078086 -1511.558300 -840.480804 1005579.000000 1.000000 1.000000 -727402.125000 3.000000 
6078.103477 -1661.576100 -879.288605 2204987.000000 7.000000 5.000000 -727147.375000 0.000000 
6014.860312 -1471.586406 -497.952698 1805061.000000 3.000000 1.000000 -727213.375000 0.000000 
6889.558555 -1444.485897 39.160645 1809241.000000 1.000000 1.000000 -727212.625000 0.000000 
6145.923789 -1539.920902 -842.027191 1205911.000000 1.000000 1.000000 -727349.875000 3.000000 
6265.522422 -1531.668605 -842.613190 3787658.000000 5.000000 5.000000 -727019.125000 0.000000 
6250.364219 -1500.901805 7.805542 5938638.000000 6.000000 2.000000 -726896.062500 0.000000 
6687.741172 -1392.698894 -290.963379 6136162.000000 7.000000 7.000000 -726883.000000 0.000000 
5894.224570 -953.718120 -10.045776 1197760.000000 1.000000 1.000000 -727351.875000 0.000000 
6002.138633 -873.175396 -565.251404 8503791.000000 1.000000 1.000000 -726563.375000 0.000000 
6036.966758 -740.191326 -11.328247 1198127.000000 2.000000 1.000000 -727351.750000 0.000000 
6726.113242 -1471.521495 -204.014771 198343.000000 1.000000 1.000000 -727575.187500 21.000000 
6035.120078 -1471.482097 -822.703705 797795.000000 1.000000 1.000000 -727450.437500 9.000000 
7148.227500 -343.753276 52.005249 4938873.000000 7.000000 5.000000 -726955.812500 0.000000 
6099.352500 -431.977642 -16.752808 5734813.000000 6.000000 2.000000 -726909.500000 0.000000 
6726.215781 -1471.511806 -455.664978 198347.000000 1.000000 1.000000 -727575.187500 26.000000 
6720.480430 -1461.386898 31.292847 3392700.000000 6.000000 2.000000 -727047.562500 0.000000 
6726.265586 -1471.565105 -574.706909 198349.000000 1.000000 1.000000 -727575.187500 27.000000 
6329.397422 -270.590312 -453.986389 9485431.000000 7.000000 3.000000 -726426.062500 0.000000 
6252.675742 -1661.516400 -982.287003 392897.000000 1.000000 1.000000 -727538.125000 27.000000 
5822.125937 -476.522441 -907.572998 8896172.000000 1.000000 1.000000 -726504.937500 0.000000 
6505.931602 -272.864482 -356.807983 7518056.000000 5.000000 5.000000 -726722.625000 0.000000 
6002.040000 -372.921367 -501.648010 592071.000000 7.000000 4.000000 -727496.562500 0.000000 
5822.107383 -1011.369670 -850.743011 1799634.000000 1.000000 1.000000 -727215.000000 0.000000 
7080.626914 -282.472881 48.809204 1204564.000000 6.000000 4.000000 -727350.062500 0.000000 
6713.237266 -351.942363 13.381470 3189518.000000 7.000000 3.000000 -727061.312500 0.000000 
7242.359336 -1541.787403 57.121216 2800911.000000 4.000000 2.000000 -727088.812500 0.000000 
5912.848594 -1308.460613 -843.359314 998127.000000 1.000000 1.000000 -727403.687500 3.000000 
6728.247031 -1471.544597 -136.853027 198388.000000 1.000000 1.000000 -727575.187500 20.000000 
6469.940391 -1424.070003 18.481934 5540416.000000 6.000000 3.000000 -726921.937500 0.000000 
6965.488242 -271.519512 -213.802307 8107316.000000 6.000000 3.000000 -726623.437500 0.000000 
6167.545859 -1661.552600 -873.581909 390825.000000 1.000000 1.000000 -727538.312500 29.000000 
6347.683555 -1478.671093 12.186157 1607808.000000 1.000000 1.000000 -727254.812500 1.000000 
6375.614219 -1413.883998 14.057739 3589626.000000 6.000000 2.000000 -727034.125000 0.000000 
6728.402305 -1471.520198 -515.483215 198394.000000 1.000000 1.000000 -727575.187500 27.000000 
6363.930625 -272.605815 -653.901794 7125209.000000 7.000000 7.000000 -726787.875000 0.000000 
6967.292930 -322.018291 43.310059 4342529.000000 7.000000 4.000000 -726986.812500 0.000000 
6296.338828 -1473.240703 -838.466400 1206922.000000 1.000000 1.000000 -727349.687500 2.000000 
6091.801719 -1471.606594 -727.895599 4148183.000000 7.000000 6.000000 -726996.750000 0.000000 
6728.530234 -1471.534603 -806.631714 198399.000000 1.000000 1.000000 -727575.187500 29.000000 
6327.320273 -1609.676601 -845.505493 4546911.000000 6.000000 3.000000 -726975.125000 0.000000 
6530.356406 -1661.412700 -912.001205 3195870.000000 7.000000 7.000000 -727060.375000 0.000000 
6030.473594 -1472.069103 -766.121704 3589445.000000 7.000000 4.000000 -727034.187500 0.000000 
6381.987266 -1471.526104 -154.844482 395826.000000 1.000000 1.000000 -727537.812500 27.000000 
6002.098594 -1398.161815 -307.271118 1000238.000000 1.000000 1.000000 -727403.187500 1.000000 
6114.991172 -1471.474300 -601.835083 1204805.000000 1.000000 1.000000 -727350.062500 2.000000 
6730.407187 -1471.535396 -136.726379 198434.000000 1.000000 1.000000 -727575.187500 20.000000 
6730.433555 -1471.523906 -203.779480 198435.000000 1.000000 1.000000 -727575.187500 21.000000 
6002.364219 -1135.619792 -303.655212 592346.000000 7.000000 7.000000 -727496.437500 0.000000 
6730.484336 -1471.553707 -332.455627 198437.000000 1.000000 1.000000 -727575.187500 24.000000 
6698.116172 -351.450420 -10.654541 1401953.000000 1.000000 1.000000 -727303.062500 1.000000 
6261.963828 -1471.715999 -195.341919 2005481.000000 4.000000 2.000000 -727177.625000 0.000000 
6781.561484 -1471.363506 -705.775604 1411068.000000 1.000000 1.000000 -727301.437500 0.000000 
6856.712852 -1393.049785 -174.315918 6533003.000000 7.000000 7.000000 -726852.687500 0.000000 
6782.139609 -351.452983 -321.448730 1002625.000000 1.000000 1.000000 -727402.625000 3.000000 
6064.997031 -277.372051 -15.453613 5933027.000000 7.000000 7.000000 -726897.250000 0.000000 
5961.199180 -458.058818 -16.756348 6928190.000000 7.000000 1.000000 -726809.687500 0.000000 
5964.230430 -1162.424510 -14.077759 6533832.000000 7.000000 1.000000 -726852.500000 0.000000 
6722.829062 -1661.537500 -854.716187 198446.000000 1.000000 1.000000 -727575.187500 37.000000 
6541.334922 -1471.538906 -145.696411 399184.000000 1.000000 1.000000 -727537.500000 25.000000 
7205.715781 -1500.579204 55.308960 814848.000000 7.000000 3.000000 -727448.500000 0.000000 
6655.736289 -280.924053 27.181763 3189058.000000 6.000000 5.000000 -727061.375000 0.000000 
6406.736289 -264.491558 15.799316 1199183.000000 4.000000 1.000000 -727351.500000 0.000000 
5972.581016 -1553.948200 -842.728912 797014.000000 1.000000 1.000000 -727450.562500 6.000000 
6197.642539 -270.447734 -353.258972 10469923.000000 7.000000 3.000000 -726316.000000 0.000000 
6294.873984 -1661.483000 -859.745300 1007374.000000 1.000000 1.000000 -727401.875000 2.000000 
6061.749961 -82.992412 -922.382904 8501216.000000 6.000000 5.000000 -726563.562500 0.000000 
6734.543906 -1471.548793 -553.901978 403101.000000 1.000000 1.000000 -727537.187500 24.000000 
6732.670859 -1471.538906 -394.445007 198484.000000 1.000000 1.000000 -727575.187500 25.000000 
6072.345664 -327.716289 -15.188843 995493.000000 6.000000 2.000000 -727404.625000 0.000000 
5831.803672 -1351.494396 -16.686523 1199878.000000 1.000000 1.000000 -727351.312500 1.000000 
5936.080039 -1617.015399 -846.061005 1405645.000000 1.000000 1.000000 -727302.062500 3.000000 
6879.285117 -1471.523296 -429.161316 405859.000000 1.000000 1.000000 -727536.875000 21.000000 
5906.583945 -1409.044704 -843.714203 2003139.000000 1.000000 1.000000 -727177.937500 1.000000 
6968.846641 -351.026958 -353.665710 3387916.000000 7.000000 7.000000 -727048.312500 0.000000 
5946.771445 -1268.231304 -18.001953 998394.000000 1.000000 1.000000 -727403.625000 1.000000 
6629.482383 -224.451030 26.192871 3188736.000000 6.000000 4.000000 -727061.437500 0.000000 
5852.054648 -1638.532501 -847.180695 794807.000000 1.000000 1.000000 -727451.125000 7.000000 
6487.100547 -271.527324 -258.692627 8107914.000000 6.000000 3.000000 -726623.437500 0.000000 
6721.940391 -1471.519695 -128.863403 606558.000000 1.000000 1.000000 -727494.750000 16.000000 
6504.376914 -1395.764904 19.950562 2005893.000000 1.000000 1.000000 -727177.562500 0.000000 
6728.128867 -351.398662 -94.962524 1601641.000000 1.000000 1.000000 -727256.000000 0.000000 
6872.107383 -1391.626598 14.975342 6929844.000000 7.000000 4.000000 -726809.437500 0.000000 
6734.755820 -1471.524807 -203.538696 198527.000000 1.000000 1.000000 -727575.187500 21.000000 
6002.219687 -1398.509990 -314.875916 7719306.000000 1.000000 1.000000 -726688.750000 0.000000 
6378.281211 -270.532817 -318.170105 6330421.000000 7.000000 3.000000 -726869.687500 0.000000 
6636.689414 -1471.462093 -443.310120 807909.000000 1.000000 1.000000 -727449.062500 7.000000 
6683.128867 -1470.763393 -818.675812 1808602.000000 4.000000 4.000000 -727212.750000 0.000000 
6357.926719 -1471.379497 -595.544922 1408033.000000 1.000000 1.000000 -727301.750000 0.000000 
6455.636680 -1401.306011 17.528931 804591.000000 4.000000 4.000000 -727449.437500 0.000000 
6143.571250 -1471.501506 -219.663818 799857.000000 1.000000 1.000000 -727450.125000 17.000000 
6524.234336 -270.951763 -557.020508 6727677.000000 7.000000 3.000000 -726833.937500 0.000000 
6642.545859 -263.215557 26.368164 6926073.000000 7.000000 6.000000 -726809.937500 0.000000 
6440.976523 -1661.545200 -861.016602 397495.000000 1.000000 1.000000 -727537.687500 29.000000 
6346.941367 -1490.607997 -839.354797 599807.000000 1.000000 1.000000 -727495.437500 3.000000 
6726.615195 -1661.544800 -905.311996 198539.000000 1.000000 1.000000 -727575.187500 37.000000 
6617.649375 -268.661235 25.862549 5534850.000000 6.000000 3.000000 -726923.687500 0.000000 
6468.476523 -1471.451396 -666.999115 1408907.000000 1.000000 1.000000 -727301.625000 0.000000 
6506.037070 -1471.549907 -87.578247 398447.000000 1.000000 1.000000 -727537.562500 25.000000 
6928.723594 -350.542461 -114.648926 3189978.000000 7.000000 7.000000 -727061.250000 0.000000 
6787.729453 -1471.584499 -354.744080 2007550.000000 6.000000 4.000000 -727177.437500 0.000000 
6007.707969 -1471.508800 -319.580078 592669.000000 1.000000 1.000000 -727496.375000 27.000000 
6072.915000 -1312.297588 -17.018921 6335572.000000 7.000000 3.000000 -726868.812500 0.000000 
7056.304648 -1471.514400 -295.081482 408985.000000 1.000000 1.000000 -727536.500000 17.000000 
5936.237266 -1224.689800 -16.419922 6534154.000000 7.000000 3.000000 -726852.437500 0.000000 
5942.373984 -917.806987 -9.687866 4145237.000000 7.000000 6.000000 -726997.375000 0.000000 
6415.686484 -270.397563 -817.373291 10666712.000000 7.000000 4.000000 -726297.250000 0.000000 
5822.327109 -87.835552 -973.068497 992142.000000 5.000000 4.000000 -727405.750000 0.000000 
6488.706992 -1661.525100 -976.578201 398647.000000 1.000000 1.000000 -727537.562500 26.000000 
6737.122031 -1471.536907 -690.810211 198581.000000 1.000000 1.000000 -727575.125000 28.000000 
6752.275352 -81.505596 -905.945908 6329134.000000 7.000000 6.000000 -726869.750000 0.000000 
6324.336875 -270.821880 -624.278076 7911495.000000 5.000000 2.000000 -726655.812500 0.000000 
6002.130820 -1188.508403 -362.128906 1200800.000000 1.000000 1.000000 -727351.062500 0.000000 
6697.271445 -1553.530902 30.480835 6136805.000000 7.000000 2.000000 -726882.875000 0.000000 
6081.215781 -1288.827495 -18.427856 5341237.000000 7.000000 6.000000 -726932.000000 0.000000 
6497.546836 -1488.031505 -839.237396 806028.000000 1.000000 1.000000 -727449.250000 3.000000 
6002.249961 -650.843425 -818.158691 995915.000000 3.000000 3.000000 -727404.500000 0.000000 
6526.367148 -1450.893795 21.160645 806109.000000 4.000000 3.000000 -727449.250000 0.000000 
6796.125937 -1471.390102 -398.108398 1411158.000000 1.000000 1.000000 -727301.375000 0.000000 
6739.079062 -1471.525203 -203.292603 198619.000000 1.000000 1.000000 -727575.125000 21.000000 
6976.051719 -1471.517406 -562.868774 610474.000000 1.000000 1.000000 -727494.375000 9.000000 
6096.247031 -332.578594 -15.405640 995769.000000 6.000000 3.000000 -727404.562500 0.000000 
6739.155234 -1471.542293 -394.116028 198622.000000 1.000000 1.000000 -727575.125000 25.000000 
5966.818320 -374.401226 -15.599243 6132575.000000 7.000000 2.000000 -726883.875000 0.000000 
6002.266562 -739.817913 -643.111603 794385.000000 5.000000 4.000000 -727451.250000 0.000000 
6002.165977 -1397.711101 -333.762817 1804278.000000 1.000000 1.000000 -727213.625000 0.000000 
6101.672812 -958.780315 38.457520 796494.000000 5.000000 1.000000 -727450.687500 0.000000 
6044.956016 -1004.982585 -107.256592 7325131.000000 7.000000 7.000000 -726755.687500 0.000000 
6187.493125 -351.414043 -81.640991 1598008.000000 1.000000 1.000000 -727256.750000 1.000000 
6330.949180 -80.556255 -935.662506 6130737.000000 7.000000 4.000000 -726884.062500 0.000000 
5945.610312 -1661.466700 -901.611404 1204671.000000 1.000000 1.000000 -727350.062500 1.000000 
6730.379844 -1661.547000 -905.159698 198631.000000 1.000000 1.000000 -727575.125000 37.000000 
6142.898398 -1472.268398 -728.616791 2402096.000000 7.000000 2.000000 -727122.562500 0.000000 
6958.059531 -1471.552196 -553.217590 407287.000000 1.000000 1.000000 -727536.687500 19.000000 
5925.965781 -1177.714092 -16.746582 3947575.000000 7.000000 7.000000 -727009.062500 0.000000 
6301.359336 -1661.481900 -985.406097 1007467.000000 1.000000 1.000000 -727401.875000 2.000000 
6002.282187 -365.731304 -712.509796 994855.000000 5.000000 4.000000 -727404.812500 0.000000 
6819.123984 -328.823223 36.259644 3783100.000000 7.000000 3.000000 -727019.937500 0.000000 
6157.696250 -270.401836 -803.370392 6926996.000000 7.000000 2.000000 -726809.875000 0.000000 
5982.344687 -1662.735700 -979.996307 3787981.000000 7.000000 2.000000 -727019.125000 0.000000 
7218.127891 -350.204326 -72.829346 2992684.000000 7.000000 7.000000 -727075.875000 0.000000 
5886.028281 -1058.946392 -13.777222 3946931.000000 7.000000 7.000000 -727009.187500 0.000000 
6532.291953 -272.623638 -652.110901 6926305.000000 7.000000 7.000000 -726809.937500 0.000000 
6222.306602 -271.514751 -524.799011 8895113.000000 7.000000 4.000000 -726504.937500 0.000000 
7051.895469 -261.175029 48.197632 6130917.000000 7.000000 2.000000 -726884.062500 0.000000 
6741.445273 -1471.544002 -690.629303 198673.000000 1.000000 1.000000 -727575.125000 28.000000 
6002.228477 -1233.435314 -793.522614 592399.000000 7.000000 7.000000 -727496.375000 0.000000 
7105.732383 -1408.501003 49.536743 4148639.000000 7.000000 6.000000 -726996.687500 0.000000 
5821.659141 -1143.813884 -947.921295 995689.000000 4.000000 1.000000 -727404.562500 0.000000 
5822.045859 -1178.491588 -900.792007 792688.000000 5.000000 3.000000 -727451.875000 0.000000 
6628.625937 -1471.462703 -127.847290 1210135.000000 1.000000 1.000000 -727349.250000 1.000000 
6300.047812 -273.045391 -706.402008 6529326.000000 7.000000 7.000000 -726853.187500 0.000000 
5828.019492 -1234.378704 -17.161133 996278.000000 1.000000 1.000000 -727404.312500 1.000000 
6497.046836 -1471.462703 -302.453613 1208941.000000 1.000000 1.000000 -727349.375000 1.000000 
5929.832969 -822.485515 -841.941803 6929756.000000 6.000000 2.000000 -726809.437500 0.000000 
6818.297812 -1661.425600 -956.244797 2603161.000000 7.000000 7.000000 -727103.687500 0.000000 
6380.113242 -1471.010707 -825.276611 3194582.000000 7.000000 7.000000 -727060.500000 0.000000 
5963.561484 -1274.448009 -18.169189 1602979.000000 1.000000 1.000000 -727255.687500 1.000000 
5900.749961 -1469.678295 27.020020 385795.000000 1.000000 1.000000 -727539.375000 12.000000 
6470.193320 -353.065044 -244.476990 4938599.000000 7.000000 1.000000 -726955.875000 0.000000 
5983.967734 -1661.489400 -930.512894 1002362.000000 1.000000 1.000000 -727402.625000 3.000000 
6236.712852 -1537.129001 7.893799 5938822.000000 6.000000 1.000000 -726896.000000 0.000000 
6654.796836 -130.321147 -847.010101 6329456.000000 6.000000 6.000000 -726869.750000 0.000000 
6434.744102 -79.672100 -905.042999 8697544.000000 7.000000 1.000000 -726533.875000 0.000000 
6049.950156 -1027.889507 -12.025391 1200152.000000 1.000000 1.000000 -727351.250000 0.000000 
6002.379844 -1345.859294 -323.114624 2599021.000000 7.000000 7.000000 -727104.062500 0.000000 
7228.279258 -1471.468303 -37.057129 814757.000000 1.000000 1.000000 -727448.500000 3.000000 
6734.145469 -1661.543900 -905.008896 198723.000000 1.000000 1.000000 -727575.125000 37.000000 
6083.697227 -272.269756 -596.440308 8305117.000000 6.000000 4.000000 -726592.312500 0.000000 
5914.331992 -606.588481 -108.380005 7520355.000000 7.000000 4.000000 -726722.500000 0.000000 
6187.562461 -271.531597 -253.038086 8304978.000000 6.000000 3.000000 -726592.312500 0.000000 
6671.500937 -1472.556301 -415.918823 2997333.000000 7.000000 2.000000 -727075.125000 0.000000 
6779.888633 -1471.288402 34.298706 6930304.000000 7.000000 3.000000 -726809.312500 0.000000 
6936.848594 -201.964458 41.801758 1402688.000000 5.000000 3.000000 -727302.875000 0.000000 
6745.592734 -1471.501400 -268.092407 198758.000000 1.000000 1.000000 -727575.125000 22.000000 
6160.316367 -1471.502407 -764.580414 595896.000000 1.000000 1.000000 -727495.937500 18.000000 
6515.368125 -1554.239398 20.454224 5342156.000000 6.000000 4.000000 -726931.750000 0.000000 
6024.920859 -1471.545696 -143.764893 593034.000000 1.000000 1.000000 -727496.312500 28.000000 
6102.263633 -812.369304 53.390503 2794151.000000 2.000000 2.000000 -727089.687500 0.000000 
5822.267539 -1326.618999 -953.919205 7523072.000000 2.000000 2.000000 -726722.125000 0.000000 
6942.125937 -1470.915599 -236.679199 2008055.000000 6.000000 5.000000 -727177.375000 0.000000 
6271.768516 -1471.514995 -501.288818 598192.000000 1.000000 1.000000 -727495.625000 22.000000 
6321.937461 -1471.519695 -439.257019 599203.000000 1.000000 1.000000 -727495.562500 22.000000 
6002.199180 -806.472271 -717.566406 1198133.000000 1.000000 1.000000 -727351.750000 0.000000 
6087.601523 -414.627422 -17.301147 1196930.000000 3.000000 3.000000 -727352.062500 0.000000 
6736.029258 -1661.550800 -904.933105 198769.000000 1.000000 1.000000 -727575.125000 37.000000 
5923.386680 -976.266826 -9.960815 3784482.000000 6.000000 2.000000 -727019.687500 0.000000 
6002.141562 -1381.134197 -816.827911 1000105.000000 1.000000 1.000000 -727403.187500 0.000000 
6747.196250 -1480.110103 0.930054 198800.000000 1.000000 1.000000 -727575.125000 4.000000 
6769.165000 -1471.535793 -505.899780 3949921.000000 7.000000 6.000000 -727008.687500 0.000000 
6041.375937 -396.542095 -16.938354 1196378.000000 3.000000 3.000000 -727352.250000 0.000000 
6774.833945 -270.175396 -274.252319 10863453.000000 7.000000 3.000000 -726276.562500 0.000000 
6712.735312 -1472.830501 -469.670105 3949875.000000 7.000000 3.000000 -727008.687500 0.000000 
6627.782187 -1471.515605 -735.666107 604957.000000 1.000000 1.000000 -727494.937500 13.000000 
6292.064414 -208.569683 -840.488708 5733573.000000 6.000000 1.000000 -726909.812500 0.000000 
7184.154258 -1471.872905 -167.269897 2008790.000000 6.000000 3.000000 -727177.312500 0.000000 
6643.355430 -1471.500804 -129.487000 605224.000000 1.000000 1.000000 -727494.875000 18.000000 
6416.361289 -1471.502803 -37.505859 804592.000000 1.000000 1.000000 -727449.437500 14.000000 
6747.907187 -1471.552806 -632.260986 198810.000000 1.000000 1.000000 -727575.125000 28.000000 
6314.173789 -272.398540 -519.330811 8895021.000000 7.000000 5.000000 -726504.937500 0.000000 
6613.623008 -243.105693 -838.607391 6330008.000000 6.000000 1.000000 -726869.687500 0.000000 
6345.899375 -1472.818904 -443.217712 3194535.000000 7.000000 1.000000 -727060.500000 0.000000 
7216.376914 -1471.510906 -148.649414 411559.000000 1.000000 1.000000 -727536.187500 13.000000 
6555.395469 -350.582622 -223.148315 3189151.000000 7.000000 7.000000 -727061.375000 0.000000 
6136.183555 -1471.524700 -287.861084 799720.000000 1.000000 1.000000 -727450.187500 16.000000 
6391.155234 -1549.109203 14.356079 1608774.000000 1.000000 1.000000 -727254.687500 1.000000 
6571.980430 -1517.986599 24.644409 3787931.000000 6.000000 1.000000 -727019.125000 0.000000 
6713.217734 -272.326519 -559.578308 8304335.000000 6.000000 4.000000 -726592.312500 0.000000 
5822.169883 -987.218425 -902.582306 8897690.000000 1.000000 1.000000 -726504.812500 0.000000 
6749.892539 -1471.522808 -202.653992 198849.000000 1.000000 1.000000 -727575.125000 21.000000 
7067.341758 -1517.150295 48.344360 3195820.000000 4.000000 2.000000 -727060.375000 0.000000 
7245.165000 -1562.554203 57.778564 3393803.000000 7.000000 1.000000 -727047.500000 0.000000 
5822.266562 -1624.776901 -854.714111 9883010.000000 2.000000 2.000000 -726377.687500 0.000000 
5822.219687 -1451.258693 -889.447906 9095674.000000 1.000000 1.000000 -726477.375000 0.000000 
7145.932578 -1471.542507 -289.651001 410457.000000 1.000000 1.000000 -727536.312500 15.000000 
6065.090781 -1091.240581 -13.420166 4345199.000000 7.000000 4.000000 -726986.250000 0.000000 
6002.130820 -1324.551403 -344.907288 10472545.000000 1.000000 1.000000 -726315.812500 0.000000 
6624.229453 -352.804546 -369.955872 2991306.000000 7.000000 1.000000 -727076.125000 0.000000 
6901.275352 -1390.167003 -162.296875 5142332.000000 7.000000 3.000000 -726943.500000 0.000000 
6553.852500 -352.452251 -322.187622 2991122.000000 7.000000 2.000000 -727076.125000 0.000000 
6491.083945 -1468.840602 19.538086 3949644.000000 6.000000 3.000000 -727008.687500 0.000000 
5948.807578 -280.195537 -841.470093 6529925.000000 4.000000 3.000000 -726853.125000 0.000000 
6896.463828 -1481.688396 8.553467 609408.000000 7.000000 6.000000 -727494.500000 0.000000 
6852.538047 -304.542827 37.233643 1002990.000000 7.000000 6.000000 -727402.562500 0.000000 
6001.548789 -461.302349 -834.690186 6331849.000000 3.000000 1.000000 -726869.562500 0.000000 
6410.552695 -1471.553905 -72.450439 600945.000000 1.000000 1.000000 -727495.312500 23.000000 
6545.968711 -273.271343 -185.379089 8501260.000000 6.000000 6.000000 -726563.562500 0.000000 
6282.317344 -1594.283603 -844.684814 3787980.000000 5.000000 2.000000 -727019.125000 0.000000 
6375.078086 -1661.023500 -880.344086 2404212.000000 7.000000 7.000000 -727122.375000 0.000000 
6277.257773 -351.441753 -62.047852 1997474.000000 1.000000 1.000000 -727179.062500 0.000000 
7149.857383 -1435.590007 51.744141 4347497.000000 7.000000 6.000000 -726985.750000 0.000000 
6975.824180 -258.434795 44.062744 2991718.000000 6.000000 2.000000 -727076.062500 0.000000 
7098.882773 -296.319683 50.549805 4739923.000000 7.000000 2.000000 -726965.500000 0.000000 
5822.146445 -734.396221 -854.348114 10077590.000000 1.000000 1.000000 -726355.625000 0.000000 
6223.983359 -1660.589400 -884.753296 3590687.000000 7.000000 7.000000 -727034.062500 0.000000 
6284.415977 -263.178813 -838.980591 5733849.000000 6.000000 4.000000 -726909.750000 0.000000 
6353.405234 -352.378032 6.765259 2395513.000000 4.000000 1.000000 -727123.750000 0.000000 
6001.698203 -1397.234508 -656.537506 592490.000000 7.000000 1.000000 -727496.375000 0.000000 
5824.373008 -1661.470500 -976.840500 999327.000000 1.000000 1.000000 -727403.375000 3.000000 
6536.884727 -1471.545696 -85.411621 399091.000000 1.000000 1.000000 -727537.500000 25.000000 
6824.851523 -1589.422199 -844.470490 4944488.000000 6.000000 3.000000 -726953.250000 0.000000 
6615.641562 -319.040630 25.765503 5137364.000000 6.000000 3.000000 -726945.312500 0.000000 
6188.454062 -1661.508600 -928.704407 391332.000000 1.000000 1.000000 -727538.250000 28.000000 
6001.618125 -1280.938396 -657.309113 2598562.000000 3.000000 1.000000 -727104.125000 0.000000 
