ply
format ascii 1.0
comment Created by CloudCompare v2.12 alpha
comment Created 6/8/2021 9:25 PM
obj_info Generated by CloudCompare!
element vertex 456
property double x
property double y
property double z
property float scalar_fullwaveIndex
property float scalar_NumberOfReturns
property float scalar_ReturnNumber
property float scalar_GpsTime
property float scalar_Intensity
property float scalar_Original_cloud_index
end_header
6483.333945 -1471.506404 -736.034912 565119.000000 1.000000 1.000000 -1129947.500000 49.000000 0.000000 
6828.147422 -1391.939586 -319.485291 3659002.000000 7.000000 7.000000 -1129321.875000 0.000000 0.000000 
6377.508750 -1471.522594 -622.126526 874461.000000 1.000000 1.000000 -1129866.250000 46.000000 0.000000 
6602.035117 -271.511455 -594.200806 8564350.000000 5.000000 3.000000 -1128885.250000 0.000000 1.000000 
6976.315391 -351.519390 -433.890198 2424760.000000 5.000000 3.000000 -1129428.750000 0.000000 0.000000 
7112.630820 -1471.527202 -75.304443 278230.000000 1.000000 1.000000 -1130008.375000 19.000000 0.000000 
6946.071250 -184.086772 41.798950 1189374.000000 7.000000 7.000000 -1129770.375000 0.000000 0.000000 
6255.727500 -1661.520300 -898.405899 245351.000000 1.000000 1.000000 -1130012.625000 33.000000 0.000000 
5918.659141 -721.309185 -11.951050 5162601.000000 1.000000 1.000000 -1129247.250000 0.000000 0.000000 
6722.041953 -1471.558300 -640.303802 264034.000000 1.000000 1.000000 -1130010.625000 36.000000 0.000000 
6001.605430 -300.213359 -122.189819 5157492.000000 3.000000 1.000000 -1129248.000000 0.000000 0.000000 
6657.875937 -1632.346200 -846.835999 574155.000000 1.000000 1.000000 -1129946.375000 9.000000 0.000000 
6231.392539 -272.524150 -562.028992 6962715.000000 7.000000 7.000000 -1129103.250000 0.000000 0.000000 
6063.000937 -631.182231 -14.026611 1480798.000000 1.000000 1.000000 -1129657.000000 3.000000 0.000000 
6974.080039 -281.447124 43.557983 2423355.000000 1.000000 1.000000 -1129429.000000 1.000000 0.000000 
7003.764609 -351.423076 -475.477722 2117878.000000 1.000000 1.000000 -1129473.375000 0.000000 0.000000 
6761.703086 -351.971782 -454.808411 2423082.000000 4.000000 1.000000 -1129429.000000 0.000000 0.000000 
6102.094687 -899.103923 94.045044 1804069.000000 1.000000 1.000000 -1129546.500000 7.000000 0.000000 
7136.766562 -185.409771 52.103149 6357702.000000 6.000000 2.000000 -1129161.375000 0.000000 0.000000 
6067.158164 -1213.042705 -17.014160 6068395.000000 5.000000 5.000000 -1129185.250000 0.000000 0.000000 
5764.786094 -1363.395397 -16.401001 1153402.000000 1.000000 1.000000 -1129784.750000 5.000000 0.000000 
6642.424766 -1390.910106 -159.990906 2752642.000000 7.000000 1.000000 -1129383.250000 0.000000 0.000000 
6040.435508 -1471.510906 -790.871185 855355.000000 1.000000 1.000000 -1129869.500000 31.000000 0.000000 
6400.884727 -1471.516002 -333.024475 875780.000000 1.000000 1.000000 -1129866.000000 73.000000 0.000000 
6424.404258 -1661.542400 -877.445496 561696.000000 1.000000 1.000000 -1129948.000000 56.000000 0.000000 
6708.703086 -1471.518093 -13.733032 891447.000000 1.000000 1.000000 -1129863.625000 51.000000 0.000000 
6892.879844 -1392.198192 -2.111816 3960210.000000 7.000000 7.000000 -1129306.500000 0.000000 0.000000 
5937.520469 -685.039104 -12.852661 5162111.000000 1.000000 1.000000 -1129247.375000 0.000000 0.000000 
6010.664023 -1004.174724 -11.359009 1168449.000000 1.000000 1.000000 -1129776.125000 1.000000 0.000000 
6493.716758 -1471.521602 -214.325317 880885.000000 1.000000 1.000000 -1129865.250000 73.000000 0.000000 
6752.959922 -1508.894298 3.463013 265137.000000 1.000000 1.000000 -1130010.500000 8.000000 0.000000 
6002.164023 -308.978862 -187.063110 10960379.000000 1.000000 1.000000 -1128527.500000 0.000000 1.000000 
6012.364219 -1260.461803 -17.710938 1491520.000000 1.000000 1.000000 -1129654.000000 36.000000 0.000000 
6971.082969 -1391.704906 -218.526611 4863138.000000 7.000000 7.000000 -1129264.125000 0.000000 0.000000 
6324.540000 -351.559795 -25.376343 1176216.000000 1.000000 1.000000 -1129773.750000 18.000000 0.000000 
6046.543906 -698.887676 -12.415527 6064476.000000 2.000000 1.000000 -1129185.875000 0.000000 0.000000 
6861.293906 -305.702007 37.891602 1806788.000000 1.000000 1.000000 -1129546.000000 1.000000 0.000000 
6656.932578 -1390.503398 -505.516296 5165329.000000 6.000000 4.000000 -1129246.875000 0.000000 0.000000 
6826.501914 -1471.554195 -386.835815 267877.000000 1.000000 1.000000 -1130010.250000 30.000000 0.000000 
5958.574180 -1343.661205 -16.813232 1166073.000000 1.000000 1.000000 -1129777.250000 7.000000 0.000000 
6903.027305 -1471.492198 -93.747437 1215143.000000 1.000000 1.000000 -1129765.375000 8.000000 0.000000 
6757.705039 -1471.502697 -429.852295 893563.000000 1.000000 1.000000 -1129863.375000 35.000000 0.000000 
6132.401328 -216.777446 -0.712646 1170615.000000 6.000000 6.000000 -1129775.375000 0.000000 0.000000 
6075.747031 -446.154155 -67.486450 9763308.000000 7.000000 7.000000 -1128701.500000 0.000000 1.000000 
6195.906211 -1471.538097 -186.267883 864013.000000 1.000000 1.000000 -1129867.875000 88.000000 0.000000 
6208.191367 -1402.183513 5.255859 3361294.000000 1.000000 1.000000 -1129338.750000 1.000000 0.000000 
6474.200156 -1471.518505 -169.238770 879833.000000 1.000000 1.000000 -1129865.375000 77.000000 0.000000 
5887.352500 -1203.127300 -16.540527 5167710.000000 1.000000 1.000000 -1129246.625000 0.000000 0.000000 
7037.590781 -1391.176586 -166.027771 2447158.000000 7.000000 3.000000 -1129418.250000 0.000000 0.000000 
6171.634727 -1471.517192 -444.702698 245479.000000 1.000000 1.000000 -1130012.625000 20.000000 0.000000 
6364.827109 -1471.553707 -20.224243 873736.000000 1.000000 1.000000 -1129866.375000 85.000000 0.000000 
6444.488242 -1471.531902 -106.803345 1199608.000000 1.000000 1.000000 -1129767.875000 38.000000 0.000000 
6423.748008 -272.945415 -690.027496 6962085.000000 7.000000 7.000000 -1129103.250000 0.000000 0.000000 
6148.709922 -1471.544506 -349.926880 550825.000000 1.000000 1.000000 -1129949.500000 42.000000 0.000000 
6023.664023 -429.860332 -17.529053 1168026.000000 5.000000 5.000000 -1129776.250000 0.000000 0.000000 
6116.896445 -1599.464901 -845.048096 858370.000000 1.000000 1.000000 -1129868.875000 30.000000 0.000000 
6002.310508 -458.022075 -492.040405 7265394.000000 1.000000 1.000000 -1129069.625000 0.000000 0.000000 
6022.641562 -1630.396101 -846.707001 543142.000000 1.000000 1.000000 -1129951.375000 4.000000 0.000000 
6171.898398 -1471.538005 -792.498688 245488.000000 1.000000 1.000000 -1130012.625000 24.000000 0.000000 
6202.930625 -1661.510000 -872.564911 863903.000000 1.000000 1.000000 -1129867.875000 27.000000 0.000000 
6259.783164 -1661.522100 -865.874390 245490.000000 1.000000 1.000000 -1130012.625000 33.000000 0.000000 
6701.929648 -1549.229602 29.968140 1213111.000000 1.000000 1.000000 -1129765.625000 4.000000 0.000000 
6002.161094 -843.605876 -814.675690 8568901.000000 1.000000 1.000000 -1128884.875000 0.000000 1.000000 
5788.708945 -1204.442211 -107.896729 542840.000000 1.000000 1.000000 -1129951.500000 0.000000 0.000000 
6647.024375 -1391.764507 -433.338989 3055744.000000 7.000000 6.000000 -1129359.000000 0.000000 0.000000 
6241.738242 -1471.522899 -40.671753 554595.000000 1.000000 1.000000 -1129949.000000 36.000000 0.000000 
6190.815391 -1508.592006 -24.639526 245539.000000 1.000000 1.000000 -1130012.625000 5.000000 0.000000 
6136.108359 -1471.548503 -269.925903 1180157.000000 1.000000 1.000000 -1129772.625000 50.000000 0.000000 
6220.488242 -1471.553798 -544.050293 865428.000000 1.000000 1.000000 -1129867.625000 57.000000 0.000000 
6687.500937 -1471.502605 -182.859192 1209338.000000 1.000000 1.000000 -1129766.250000 15.000000 0.000000 
6278.999961 -271.151226 -613.189087 5758860.000000 7.000000 4.000000 -1129209.500000 0.000000 0.000000 
6320.356406 -266.004741 10.846191 2416151.000000 1.000000 1.000000 -1129429.750000 4.000000 0.000000 
6456.597617 -1471.534893 -482.283630 563920.000000 1.000000 1.000000 -1129947.750000 55.000000 0.000000 
5968.422812 -1148.486492 -16.069336 6969502.000000 7.000000 7.000000 -1129102.250000 0.000000 0.000000 
6656.174766 -1471.520305 -245.424805 572872.000000 1.000000 1.000000 -1129946.625000 50.000000 0.000000 
6301.050742 -1391.465496 -182.749023 5768166.000000 6.000000 3.000000 -1129208.000000 0.000000 0.000000 
6028.450156 -1471.514293 -351.986694 1171690.000000 1.000000 1.000000 -1129775.125000 43.000000 0.000000 
6462.693320 -1471.525402 -284.742004 879208.000000 1.000000 1.000000 -1129865.500000 72.000000 0.000000 
6165.760703 -271.500713 -291.297180 5759279.000000 7.000000 5.000000 -1129209.375000 0.000000 0.000000 
6473.191367 -1471.553203 -657.889404 879782.000000 1.000000 1.000000 -1129865.375000 39.000000 0.000000 
7152.089805 -273.030010 -121.627197 7260700.000000 7.000000 7.000000 -1129070.000000 0.000000 0.000000 
6197.126914 -1471.541500 -186.174316 864083.000000 1.000000 1.000000 -1129867.875000 88.000000 0.000000 
6538.152305 -1457.687694 21.781738 1836058.000000 1.000000 1.000000 -1129541.125000 10.000000 0.000000 
7014.650352 -1471.542507 -112.099121 587709.000000 1.000000 1.000000 -1129944.500000 31.000000 0.000000 
6241.379844 -1573.790599 -843.743408 866700.000000 1.000000 1.000000 -1129867.500000 30.000000 0.000000 
6238.220664 -1472.403102 6.786011 1835084.000000 1.000000 1.000000 -1129541.250000 20.000000 0.000000 
6422.126914 -271.525249 -155.158020 8863948.000000 5.000000 3.000000 -1128838.750000 0.000000 1.000000 
6152.171836 -1471.547603 -228.126282 550961.000000 1.000000 1.000000 -1129949.500000 39.000000 0.000000 
6604.496055 -1391.034801 -194.406494 6067274.000000 7.000000 3.000000 -1129185.375000 0.000000 0.000000 
6484.630820 -271.610576 -473.783020 5456880.000000 7.000000 6.000000 -1129229.875000 0.000000 0.000000 
6171.394492 -1471.543804 -166.026917 862612.000000 1.000000 1.000000 -1129868.125000 88.000000 0.000000 
6431.712852 -270.747051 -696.513489 7262734.000000 7.000000 3.000000 -1129069.875000 0.000000 0.000000 
6352.039023 -1508.760494 12.130249 5468356.000000 2.000000 2.000000 -1129228.250000 0.000000 0.000000 
6873.462852 -1471.535701 -417.563904 898112.000000 1.000000 1.000000 -1129862.625000 28.000000 0.000000 
7116.305625 -1471.526500 -60.641357 591348.000000 1.000000 1.000000 -1129943.875000 26.000000 0.000000 
6002.037070 -1324.023113 -239.804382 1168882.000000 5.000000 3.000000 -1129775.875000 0.000000 0.000000 
5877.613242 -79.425762 -966.741104 11558602.000000 7.000000 1.000000 -1128446.625000 0.000000 1.000000 
6382.684531 -351.445293 -106.678223 2109059.000000 1.000000 1.000000 -1129474.750000 1.000000 0.000000 
6664.051719 -351.495952 -384.514587 1184903.000000 1.000000 1.000000 -1129771.500000 11.000000 0.000000 
6590.396445 -1471.517406 -191.633423 569930.000000 1.000000 1.000000 -1129947.000000 49.000000 0.000000 
6479.930625 -192.534160 18.838257 2416569.000000 1.000000 1.000000 -1129429.750000 3.000000 0.000000 
6721.637656 -1416.161998 30.943115 1835285.000000 1.000000 1.000000 -1129541.250000 7.000000 0.000000 
6056.052695 -1160.220897 -15.219849 1490677.000000 1.000000 1.000000 -1129654.375000 24.000000 0.000000 
6605.577109 -272.132427 -726.037506 6058878.000000 7.000000 7.000000 -1129186.625000 0.000000 0.000000 
6158.380820 -270.835430 -255.284119 6662205.000000 7.000000 3.000000 -1129133.875000 0.000000 0.000000 
6789.321250 -1606.602901 -845.476013 1218034.000000 1.000000 1.000000 -1129765.000000 16.000000 0.000000 
6176.447227 -1471.484493 -563.864197 245622.000000 1.000000 1.000000 -1130012.625000 22.000000 0.000000 
6001.998008 -464.621929 -390.357910 6363517.000000 1.000000 1.000000 -1129161.000000 0.000000 0.000000 
6772.103477 -1471.479198 -596.875793 1211868.000000 1.000000 1.000000 -1129765.875000 4.000000 0.000000 
6086.825156 -1471.501094 -745.248901 857874.000000 1.000000 1.000000 -1129869.000000 36.000000 0.000000 
6548.998008 -290.940532 22.286621 1800700.000000 1.000000 1.000000 -1129547.125000 2.000000 0.000000 
6038.796836 -1471.560604 -199.234314 855263.000000 1.000000 1.000000 -1129869.500000 78.000000 0.000000 
6252.916953 -1539.993602 7.450195 3664743.000000 1.000000 1.000000 -1129321.500000 1.000000 0.000000 
6927.919883 -351.533916 5.443481 2424406.000000 2.000000 1.000000 -1129428.750000 0.000000 0.000000 
7014.505820 -1390.652202 -370.565002 4562000.000000 7.000000 2.000000 -1129279.250000 0.000000 0.000000 
6601.281211 -81.044902 -989.922806 7561704.000000 7.000000 4.000000 -1129035.375000 0.000000 0.000000 
6505.617148 -1471.538707 -357.083130 881521.000000 1.000000 1.000000 -1129865.125000 63.000000 0.000000 
6425.100547 -81.098125 -855.434814 6659897.000000 7.000000 3.000000 -1129134.000000 0.000000 0.000000 
6013.057578 -271.521099 -123.940186 11559229.000000 7.000000 4.000000 -1128446.625000 0.000000 1.000000 
7030.866172 -1471.520305 -255.666382 903356.000000 1.000000 1.000000 -1129861.875000 21.000000 0.000000 
6123.857383 -80.882427 -876.060608 5757602.000000 7.000000 3.000000 -1129209.500000 0.000000 0.000000 
6806.988242 -1661.529800 -867.432007 267331.000000 1.000000 1.000000 -1130010.250000 51.000000 0.000000 
6833.721641 -351.459331 -181.048523 1497946.000000 1.000000 1.000000 -1129651.875000 6.000000 0.000000 
5963.152305 -702.504375 -12.277100 1166277.000000 5.000000 3.000000 -1129777.125000 0.000000 0.000000 
6074.980430 -1471.543102 -128.525391 857220.000000 1.000000 1.000000 -1129869.125000 83.000000 0.000000 
7285.438437 -1529.049907 59.259644 5464433.000000 5.000000 3.000000 -1129228.875000 0.000000 0.000000 
6908.192344 -1471.492504 -143.983887 270881.000000 1.000000 1.000000 -1130009.750000 22.000000 0.000000 
6341.999961 -271.126323 -343.121399 6360716.000000 7.000000 3.000000 -1129161.250000 0.000000 0.000000 
6363.049766 -1471.556606 -108.667847 559777.000000 1.000000 1.000000 -1129948.250000 43.000000 0.000000 
5884.998984 -490.709087 -88.106445 8268387.000000 6.000000 5.000000 -1128932.625000 0.000000 1.000000 
6088.443320 -269.470562 -638.054810 12457891.000000 7.000000 2.000000 -1128336.875000 0.000000 1.000000 
6858.195273 -79.825786 -979.846695 10059692.000000 7.000000 2.000000 -1128654.500000 0.000000 1.000000 
6867.459922 -1471.507396 -27.165039 897888.000000 1.000000 1.000000 -1129862.625000 35.000000 0.000000 
6739.170859 -1471.517101 -638.290314 576526.000000 1.000000 1.000000 -1129946.125000 48.000000 0.000000 
6171.364219 -1471.520793 -121.911621 862610.000000 1.000000 1.000000 -1129868.125000 89.000000 0.000000 
5892.103477 -1319.028301 -17.281128 1484803.000000 1.000000 1.000000 -1129655.875000 46.000000 0.000000 
6461.217734 -351.442729 -92.886963 1799933.000000 1.000000 1.000000 -1129547.250000 5.000000 0.000000 
6002.018516 -297.272686 -383.173401 6662976.000000 1.000000 1.000000 -1129133.875000 0.000000 0.000000 
6098.575156 -1582.040699 -844.161804 547132.000000 1.000000 1.000000 -1129950.125000 4.000000 0.000000 
6705.295859 -1471.508297 -299.339172 575044.000000 1.000000 1.000000 -1129946.250000 50.000000 0.000000 
6261.909141 -1661.523000 -902.630905 868314.000000 1.000000 1.000000 -1129867.250000 24.000000 0.000000 
6703.551719 -1391.262310 -316.964172 4563471.000000 7.000000 4.000000 -1129279.125000 0.000000 0.000000 
6011.837852 -1471.540493 -102.015869 1170350.000000 1.000000 1.000000 -1129775.375000 97.000000 0.000000 
6563.222617 -1391.039287 -411.736328 3660474.000000 7.000000 3.000000 -1129321.750000 0.000000 0.000000 
7114.454062 -1471.542705 -324.098328 591286.000000 1.000000 1.000000 -1129943.875000 30.000000 0.000000 
6115.484336 -1471.556896 -58.930908 859457.000000 1.000000 1.000000 -1129868.625000 85.000000 0.000000 
6275.615195 -1471.532497 -754.708893 556019.000000 1.000000 1.000000 -1129948.750000 44.000000 0.000000 
6102.091758 -928.040203 66.737549 1805120.000000 1.000000 1.000000 -1129546.250000 7.000000 0.000000 
5822.175742 -898.103496 -946.192093 12460552.000000 1.000000 1.000000 -1128336.750000 0.000000 1.000000 
6587.299766 -1661.543100 -891.392395 570587.000000 1.000000 1.000000 -1129946.875000 53.000000 0.000000 
6776.685508 -271.985454 -779.475403 4852853.000000 7.000000 7.000000 -1129265.125000 0.000000 0.000000 
6180.931602 -1471.503307 -191.433777 245753.000000 1.000000 1.000000 -1130012.625000 16.000000 0.000000 
6912.937461 -272.959453 -597.178711 8264470.000000 5.000000 5.000000 -1128932.875000 0.000000 1.000000 
6334.540000 -1471.549297 -509.767395 872007.000000 1.000000 1.000000 -1129866.625000 59.000000 0.000000 
7120.744102 -1471.546398 -243.824097 278514.000000 1.000000 1.000000 -1130008.375000 23.000000 0.000000 
6089.277305 -1087.556621 -13.547241 4563543.000000 1.000000 1.000000 -1129279.125000 0.000000 0.000000 
6459.106406 -1471.481502 -407.242493 1200318.000000 1.000000 1.000000 -1129767.750000 17.000000 0.000000 
6907.271445 -270.189800 -180.602417 8264468.000000 5.000000 1.000000 -1128932.875000 0.000000 1.000000 
6045.388633 -427.044658 -17.308716 1168656.000000 5.000000 3.000000 -1129776.000000 0.000000 0.000000 
6002.273398 -366.448345 -213.819214 6964184.000000 1.000000 1.000000 -1129103.125000 0.000000 0.000000 
7216.826133 -1471.500698 -9.760986 281799.000000 1.000000 1.000000 -1130007.875000 16.000000 0.000000 
6652.344687 -1471.519603 -621.444702 888880.000000 1.000000 1.000000 -1129864.000000 32.000000 0.000000 
6451.610312 -1661.545200 -874.210510 563166.000000 1.000000 1.000000 -1129947.875000 56.000000 0.000000 
6896.968711 -1444.801403 39.666260 2448767.000000 1.000000 1.000000 -1129417.125000 2.000000 0.000000 
5942.669883 -890.783916 -8.482422 1797493.000000 1.000000 1.000000 -1129547.625000 19.000000 0.000000 
6545.641562 -1471.485607 -533.738220 1204170.000000 1.000000 1.000000 -1129767.000000 9.000000 0.000000 
6328.180625 -189.951274 11.107666 5155040.000000 1.000000 1.000000 -1129248.250000 0.000000 0.000000 
6617.087852 -1471.543407 -524.963806 887197.000000 1.000000 1.000000 -1129864.250000 41.000000 0.000000 
6487.918906 -1661.507200 -887.852997 884623.000000 1.000000 1.000000 -1129864.625000 20.000000 0.000000 
6683.637656 -1391.552013 -326.217529 3055533.000000 7.000000 4.000000 -1129359.000000 0.000000 0.000000 
6564.360312 -1390.928997 -502.987915 4263174.000000 7.000000 4.000000 -1129292.625000 0.000000 0.000000 
6638.763633 -1409.102108 27.824585 5766764.000000 5.000000 1.000000 -1129208.250000 0.000000 0.000000 
5888.060508 -238.635112 -844.576691 7564925.000000 5.000000 3.000000 -1129035.125000 0.000000 0.000000 
6265.895469 -271.507549 -601.743408 13057021.000000 7.000000 5.000000 -1128276.375000 0.000000 1.000000 
6498.709922 -351.448589 -14.265991 2420490.000000 1.000000 1.000000 -1129429.375000 0.000000 0.000000 
7209.553672 -1471.535198 -112.759644 594430.000000 1.000000 1.000000 -1129943.500000 23.000000 0.000000 
6204.835898 -272.102031 -478.181824 7967249.000000 5.000000 4.000000 -1128980.375000 0.000000 1.000000 
6833.697227 -269.514385 -651.539886 11558251.000000 7.000000 2.000000 -1128446.625000 0.000000 1.000000 
6920.306602 -1471.548107 -488.133118 584081.000000 1.000000 1.000000 -1129945.000000 42.000000 0.000000 
5896.866172 -82.544048 -994.110794 6962508.000000 7.000000 7.000000 -1129103.250000 0.000000 0.000000 
6486.323203 -1391.726909 -254.916687 3056724.000000 7.000000 5.000000 -1129358.875000 0.000000 0.000000 
6581.627891 -1471.533794 -549.395813 885448.000000 1.000000 1.000000 -1129864.500000 41.000000 0.000000 
5822.446250 -459.222515 -957.443298 6364220.000000 3.000000 3.000000 -1129160.875000 0.000000 0.000000 
6922.348594 -1471.476100 -427.763306 1215572.000000 1.000000 1.000000 -1129765.375000 4.000000 0.000000 
5937.772422 -1300.812908 -18.972168 7571010.000000 7.000000 7.000000 -1129034.250000 0.000000 0.000000 
6516.132773 -1391.461498 -151.026917 4564451.000000 7.000000 5.000000 -1129279.125000 0.000000 0.000000 
6299.313437 -1471.501201 -565.815796 869979.000000 1.000000 1.000000 -1129867.000000 54.000000 0.000000 
6274.828086 -1471.490596 -428.826477 1189961.000000 1.000000 1.000000 -1129770.250000 24.000000 0.000000 
6836.778281 -272.500103 -207.695007 6058175.000000 7.000000 7.000000 -1129186.750000 0.000000 0.000000 
6726.299766 -1564.090900 -843.326294 264040.000000 7.000000 6.000000 -1130010.625000 0.000000 0.000000 
6011.068320 -1471.508998 -224.806396 853794.000000 1.000000 1.000000 -1129869.750000 75.000000 0.000000 
6391.579062 -271.628765 -554.894409 6059578.000000 7.000000 7.000000 -1129186.625000 0.000000 0.000000 
6630.042930 -1471.508007 -336.876892 887820.000000 1.000000 1.000000 -1129864.250000 52.000000 0.000000 
6578.993125 -1471.452098 -694.304688 1205503.000000 1.000000 1.000000 -1129766.750000 5.000000 0.000000 
7115.138633 -321.706157 50.749146 5756684.000000 4.000000 2.000000 -1129209.625000 0.000000 0.000000 
5930.421836 -1201.837596 -15.597046 6969992.000000 7.000000 2.000000 -1129102.125000 0.000000 0.000000 
6861.502891 -352.217754 -662.533691 2730384.000000 7.000000 1.000000 -1129394.500000 0.000000 0.000000 
6786.227500 -351.958354 -369.045898 2423291.000000 4.000000 1.000000 -1129429.000000 0.000000 0.000000 
6541.319297 -1391.106700 -56.453369 2753202.000000 6.000000 2.000000 -1129383.125000 0.000000 0.000000 
6078.331016 -270.882671 -822.792114 8565611.000000 5.000000 2.000000 -1128885.250000 0.000000 1.000000 
6571.624961 -351.485454 -176.433472 1492137.000000 1.000000 1.000000 -1129653.750000 9.000000 0.000000 
6756.506797 -1661.481200 -889.296204 899670.000000 1.000000 1.000000 -1129862.375000 12.000000 0.000000 
6897.450156 -1392.191204 -387.819397 3658652.000000 7.000000 7.000000 -1129321.875000 0.000000 0.000000 
6042.157187 -1389.629497 -15.868164 1499573.000000 1.000000 1.000000 -1129651.250000 44.000000 0.000000 
6506.769492 -1471.530605 -824.418213 566172.000000 1.000000 1.000000 -1129947.375000 45.000000 0.000000 
6199.441367 -1561.531497 -8.691650 551723.000000 1.000000 1.000000 -1129949.375000 36.000000 0.000000 
6429.760703 -1561.515003 0.786865 1202965.000000 1.000000 1.000000 -1129767.250000 48.000000 0.000000 
7013.015586 -1493.792095 15.269775 588055.000000 1.000000 1.000000 -1129944.375000 4.000000 0.000000 
6693.421836 -1471.512294 -566.888916 890768.000000 1.000000 1.000000 -1129863.750000 33.000000 0.000000 
6067.524375 -874.604106 -8.339355 5163440.000000 1.000000 1.000000 -1129247.125000 0.000000 0.000000 
6558.609336 -272.324199 -296.265503 9462239.000000 6.000000 4.000000 -1128748.000000 0.000000 1.000000 
6500.300742 -351.487896 -59.158325 1490385.000000 1.000000 1.000000 -1129654.500000 11.000000 0.000000 
6730.373008 -271.503398 -811.664398 8264891.000000 5.000000 3.000000 -1128932.875000 0.000000 1.000000 
6002.042930 -1242.264904 -758.637207 1168614.000000 7.000000 4.000000 -1129776.000000 0.000000 0.000000 
6002.256797 -985.080303 -305.469116 1168038.000000 7.000000 6.000000 -1129776.250000 0.000000 0.000000 
7064.312461 -351.462139 -303.533386 1502287.000000 1.000000 1.000000 -1129650.250000 4.000000 0.000000 
6101.926719 -973.444377 103.423706 1172365.000000 5.000000 2.000000 -1129775.000000 0.000000 0.000000 
6867.553672 -1561.523197 24.101074 900686.000000 1.000000 1.000000 -1129862.250000 35.000000 0.000000 
5785.022422 -772.663616 -10.219360 1159767.000000 3.000000 1.000000 -1129780.625000 0.000000 0.000000 
7187.438437 -1485.355205 23.373291 280958.000000 1.000000 1.000000 -1130008.000000 6.000000 0.000000 
6186.081992 -1471.533596 -792.260803 245908.000000 1.000000 1.000000 -1130012.500000 24.000000 0.000000 
7061.512656 -1561.509899 45.572876 277176.000000 1.000000 1.000000 -1130008.500000 17.000000 0.000000 
6289.824180 -271.292339 -706.296112 6059929.000000 7.000000 5.000000 -1129186.625000 0.000000 0.000000 
6328.030234 -1523.190898 11.265015 2147983.000000 1.000000 1.000000 -1129462.375000 9.000000 0.000000 
6516.390586 -1391.641490 -28.177368 4263452.000000 7.000000 5.000000 -1129292.625000 0.000000 0.000000 
6687.119102 -1471.531200 -421.077698 890483.000000 1.000000 1.000000 -1129863.750000 42.000000 0.000000 
6774.530234 -1572.551502 -843.681396 579264.000000 1.000000 1.000000 -1129945.750000 6.000000 0.000000 
6800.890586 -1471.523006 -262.310974 579173.000000 1.000000 1.000000 -1129945.750000 46.000000 0.000000 
6149.459922 -1471.516201 -609.226807 861370.000000 1.000000 1.000000 -1129868.375000 49.000000 0.000000 
6324.814414 -1553.914302 -14.424438 557463.000000 1.000000 1.000000 -1129948.625000 9.000000 0.000000 
6238.493125 -1661.641200 -998.488907 552109.000000 1.000000 1.000000 -1129949.375000 3.000000 0.000000 
6152.878867 -1471.506099 -427.336182 1181422.000000 1.000000 1.000000 -1129772.375000 29.000000 0.000000 
6050.050742 -768.616008 -106.044922 11561189.000000 7.000000 7.000000 -1128446.375000 0.000000 1.000000 
5893.324180 -357.739482 -16.004639 1783975.000000 1.000000 1.000000 -1129550.750000 6.000000 0.000000 
6002.207969 -340.200054 -571.825928 1167337.000000 7.000000 6.000000 -1129776.625000 0.000000 0.000000 
7010.299766 -1391.225902 -498.985413 3658092.000000 7.000000 4.000000 -1129322.000000 0.000000 0.000000 
6482.689414 -351.218853 -131.024170 3034814.000000 7.000000 6.000000 -1129366.875000 0.000000 0.000000 
7030.779258 -271.512798 -269.314209 12456980.000000 7.000000 4.000000 -1128337.000000 0.000000 1.000000 
6023.441367 -326.275005 -15.388062 1787754.000000 1.000000 1.000000 -1129549.875000 5.000000 0.000000 
6482.808555 -1391.889995 -302.375305 5767326.000000 7.000000 6.000000 -1129208.125000 0.000000 0.000000 
6468.070273 -270.481426 -462.478027 6661155.000000 7.000000 2.000000 -1129134.000000 0.000000 0.000000 
6544.188437 -1476.205196 -838.598907 883637.000000 1.000000 1.000000 -1129864.875000 20.000000 0.000000 
6991.245078 -1471.409893 -301.556885 1529034.000000 3.000000 3.000000 -1129643.125000 0.000000 0.000000 
5888.584922 -312.970439 -15.356689 5158122.000000 7.000000 7.000000 -1129247.875000 0.000000 0.000000 
6101.035117 -1063.930889 -13.004395 4563193.000000 1.000000 1.000000 -1129279.125000 0.000000 0.000000 
6505.707969 -242.333843 18.972656 7562960.000000 7.000000 7.000000 -1129035.250000 0.000000 0.000000 
6484.345664 -351.516948 -369.333618 1180423.000000 1.000000 1.000000 -1129772.625000 14.000000 0.000000 
6517.723594 -1471.511699 -695.315704 882163.000000 1.000000 1.000000 -1129865.000000 33.000000 0.000000 
5889.333945 -329.413066 -15.432983 2096532.000000 1.000000 1.000000 -1129476.375000 8.000000 0.000000 
6189.839805 -1471.545208 -253.682312 863666.000000 1.000000 1.000000 -1129868.000000 85.000000 0.000000 
6349.203086 -113.622539 -846.561005 7261965.000000 5.000000 2.000000 -1129069.875000 0.000000 0.000000 
6274.011680 -1661.519000 -929.565201 245982.000000 1.000000 1.000000 -1130012.500000 34.000000 0.000000 
6325.485312 -270.837139 -165.649170 8864158.000000 5.000000 2.000000 -1128838.750000 0.000000 1.000000 
6816.508750 -351.478862 -65.970215 1497594.000000 1.000000 1.000000 -1129652.000000 7.000000 0.000000 
6478.627891 -1435.013301 18.791504 1834799.000000 1.000000 1.000000 -1129541.250000 12.000000 0.000000 
6726.003867 -82.388042 -987.656403 9760442.000000 7.000000 5.000000 -1128701.625000 0.000000 1.000000 
6848.024375 -1471.511302 -757.909088 581150.000000 1.000000 1.000000 -1129945.500000 40.000000 0.000000 
6643.482383 -1471.490306 -197.369507 1207869.000000 1.000000 1.000000 -1129766.375000 17.000000 0.000000 
6770.418906 -1391.091899 -57.699829 2752010.000000 7.000000 3.000000 -1129383.500000 0.000000 0.000000 
6196.761680 -271.515117 -589.944824 13356761.000000 7.000000 5.000000 -1128249.500000 0.000000 1.000000 
6064.883750 -1661.482800 -917.622101 854033.000000 1.000000 1.000000 -1129869.750000 22.000000 0.000000 
6239.857383 -1471.530803 -437.955811 866544.000000 1.000000 1.000000 -1129867.500000 69.000000 0.000000 
5930.856406 -1196.778514 -16.152832 1484029.000000 1.000000 1.000000 -1129656.000000 32.000000 0.000000 
6190.470664 -1471.521297 -364.838013 246037.000000 1.000000 1.000000 -1130012.500000 20.000000 0.000000 
6955.998008 -1471.528804 -6.656006 272628.000000 1.000000 1.000000 -1130009.500000 18.000000 0.000000 
6060.411094 -1102.655620 -13.702393 6368064.000000 6.000000 3.000000 -1129160.250000 0.000000 0.000000 
7045.152305 -351.961650 -177.195496 2425247.000000 4.000000 1.000000 -1129428.625000 0.000000 0.000000 
5868.471641 -813.659099 -9.649170 5163861.000000 1.000000 1.000000 -1129247.125000 0.000000 0.000000 
6035.795859 -878.335491 -8.163330 1169218.000000 1.000000 1.000000 -1129775.750000 1.000000 0.000000 
6939.245078 -344.853984 41.781616 3035789.000000 1.000000 1.000000 -1129366.375000 1.000000 0.000000 
7298.182578 -1390.817211 -50.645142 3656828.000000 7.000000 2.000000 -1129322.000000 0.000000 0.000000 
6193.479453 -272.886455 -818.382904 8565331.000000 5.000000 5.000000 -1128885.250000 0.000000 1.000000 
6941.974570 -1471.492305 -569.548706 1215995.000000 1.000000 1.000000 -1129765.375000 3.000000 0.000000 
7246.766562 -317.056011 57.165283 2425873.000000 1.000000 1.000000 -1129428.625000 1.000000 0.000000 
6046.376914 -545.233745 -16.206055 2106753.000000 1.000000 1.000000 -1129475.000000 8.000000 0.000000 
6498.606406 -1392.174114 -130.906128 3056653.000000 7.000000 7.000000 -1129358.875000 0.000000 0.000000 
5808.412070 -1026.031108 -11.880981 1473385.000000 1.000000 1.000000 -1129659.375000 20.000000 0.000000 
6107.987266 -1471.546993 -126.280884 859040.000000 1.000000 1.000000 -1129868.750000 85.000000 0.000000 
6093.466758 -425.682354 -66.063354 8267407.000000 7.000000 3.000000 -1128932.625000 0.000000 1.000000 
7196.228477 -1392.892406 -67.749268 6365541.000000 7.000000 7.000000 -1129160.625000 0.000000 0.000000 
7111.079062 -1494.811702 20.217163 906357.000000 7.000000 4.000000 -1129861.375000 0.000000 0.000000 
7093.331016 -1391.521709 -238.476074 2142237.000000 7.000000 4.000000 -1129466.625000 0.000000 0.000000 
6059.530234 -1471.525402 -815.017395 547410.000000 1.000000 1.000000 -1129950.000000 33.000000 0.000000 
6905.532187 -1390.389202 -276.906982 4562490.000000 7.000000 1.000000 -1129279.250000 0.000000 0.000000 
6807.400352 -1404.713298 35.172729 3659280.000000 1.000000 1.000000 -1129321.875000 0.000000 0.000000 
7088.646445 -1428.018703 49.763428 6966979.000000 7.000000 3.000000 -1129102.750000 0.000000 0.000000 
6290.590781 -1471.536403 -179.458801 869473.000000 1.000000 1.000000 -1129867.000000 89.000000 0.000000 
6740.940391 -271.472515 -649.061188 6961104.000000 7.000000 5.000000 -1129103.375000 0.000000 0.000000 
6278.967734 -1471.545604 -815.609192 556161.000000 1.000000 1.000000 -1129948.750000 42.000000 0.000000 
6276.679648 -1430.243297 8.717773 2144554.000000 1.000000 1.000000 -1129465.000000 10.000000 0.000000 
6008.366172 -1085.188030 -14.492065 6968942.000000 7.000000 7.000000 -1129102.375000 0.000000 0.000000 
7029.014609 -350.903057 -38.511108 3036069.000000 7.000000 7.000000 -1129366.250000 0.000000 0.000000 
6597.561484 -1661.551000 -919.373703 571148.000000 1.000000 1.000000 -1129946.750000 51.000000 0.000000 
6695.850547 -1471.562892 -469.497620 574630.000000 1.000000 1.000000 -1129946.375000 53.000000 0.000000 
6942.597617 -1411.487606 41.994751 1526507.000000 1.000000 1.000000 -1129643.625000 4.000000 0.000000 
6001.860312 -1381.709789 -475.777710 1169101.000000 6.000000 1.000000 -1129775.875000 0.000000 0.000000 
6697.640586 -272.741558 -573.659485 5154761.000000 7.000000 7.000000 -1129248.250000 0.000000 0.000000 
6086.456016 -1471.555202 -105.345947 857849.000000 1.000000 1.000000 -1129869.000000 84.000000 0.000000 
6521.868125 -1403.328990 20.970581 1519583.000000 1.000000 1.000000 -1129645.125000 14.000000 0.000000 
6002.135703 -1260.695293 -341.317200 1168674.000000 6.000000 4.000000 -1129776.000000 0.000000 0.000000 
6083.209922 -497.710552 -107.940796 7968927.000000 7.000000 5.000000 -1128980.250000 0.000000 1.000000 
6990.931602 -1471.567104 -412.972778 273898.000000 1.000000 1.000000 -1130009.250000 29.000000 0.000000 
6828.169883 -352.108867 -519.780518 2423642.000000 5.000000 1.000000 -1129428.875000 0.000000 0.000000 
6553.845664 -271.280254 -776.445313 6961665.000000 7.000000 5.000000 -1129103.375000 0.000000 0.000000 
6289.603477 -1391.962596 6.964478 2450174.000000 2.000000 2.000000 -1129416.250000 0.000000 0.000000 
6230.120078 -1471.526699 -349.082703 554115.000000 1.000000 1.000000 -1129949.000000 46.000000 0.000000 
6330.298789 -269.258403 -361.216980 11858410.000000 7.000000 1.000000 -1128408.250000 0.000000 1.000000 
6189.043906 -1416.036296 4.360352 1509440.000000 1.000000 1.000000 -1129647.875000 37.000000 0.000000 
6234.949180 -1561.485103 -15.356689 246168.000000 1.000000 1.000000 -1130012.500000 14.000000 0.000000 
6208.045859 -1500.977596 -24.374512 246169.000000 1.000000 1.000000 -1130012.500000 5.000000 0.000000 
6415.482383 -1541.280803 -10.884155 561803.000000 1.000000 1.000000 -1129948.000000 9.000000 0.000000 
6958.395469 -351.475200 -43.374390 1191546.000000 1.000000 1.000000 -1129769.875000 10.000000 0.000000 
6676.841758 -1390.733501 -172.023315 3357932.000000 7.000000 1.000000 -1129339.000000 0.000000 0.000000 
6002.340781 -793.915508 -485.254700 1167760.000000 7.000000 7.000000 -1129776.375000 0.000000 0.000000 
6577.862266 -1398.548107 23.749756 1520562.000000 1.000000 1.000000 -1129645.000000 12.000000 0.000000 
7086.230430 -295.773784 49.585815 1193434.000000 7.000000 1.000000 -1129769.375000 0.000000 0.000000 
6389.859336 -1471.512096 -592.875305 875160.000000 1.000000 1.000000 -1129866.125000 48.000000 0.000000 
5742.042930 -1179.514507 -15.691040 1470239.000000 1.000000 1.000000 -1129660.625000 35.000000 0.000000 
7155.642539 -1471.526500 -53.004639 592678.000000 1.000000 1.000000 -1129943.750000 24.000000 0.000000 
6956.907187 -1512.277904 43.459351 6667520.000000 7.000000 2.000000 -1129133.125000 0.000000 0.000000 
6545.921836 -1471.510997 -699.572296 883633.000000 1.000000 1.000000 -1129864.875000 32.000000 0.000000 
6808.685508 -1661.553900 -983.797607 267405.000000 1.000000 1.000000 -1130010.250000 49.000000 0.000000 
6840.951133 -269.304058 -665.719910 11258651.000000 7.000000 1.000000 -1128486.250000 0.000000 1.000000 
6174.279258 -212.752178 -22.550293 8565047.000000 7.000000 7.000000 -1128885.250000 0.000000 1.000000 
6002.040000 -608.609844 -446.608582 1167547.000000 7.000000 5.000000 -1129776.500000 0.000000 0.000000 
6540.226523 -1391.461498 -431.086914 3962104.000000 7.000000 6.000000 -1129306.375000 0.000000 0.000000 
5882.404258 -649.132000 -845.060211 6365479.000000 1.000000 1.000000 -1129160.625000 0.000000 0.000000 
5900.549766 -1469.167903 89.602539 1161449.000000 1.000000 1.000000 -1129779.500000 64.000000 0.000000 
6101.981406 -681.845317 162.001953 4558433.000000 3.000000 2.000000 -1129279.500000 0.000000 0.000000 
6218.072227 -272.437114 -719.277313 10660431.000000 7.000000 5.000000 -1128569.125000 0.000000 1.000000 
7096.691367 -351.470073 -69.758545 1502843.000000 1.000000 1.000000 -1129650.125000 4.000000 0.000000 
6629.828086 -351.260479 -45.334961 2729191.000000 6.000000 5.000000 -1129394.875000 0.000000 0.000000 
6116.763633 -270.892559 -120.989258 6060557.000000 7.000000 3.000000 -1129186.500000 0.000000 0.000000 
6032.838828 -1471.516796 -722.204498 546427.000000 1.000000 1.000000 -1129950.250000 35.000000 0.000000 
6266.042930 -1471.527797 -69.960449 1189388.000000 1.000000 1.000000 -1129770.375000 69.000000 0.000000 
6574.542930 -1661.506900 -949.348999 569889.000000 1.000000 1.000000 -1129947.000000 48.000000 0.000000 
7078.214805 -1471.511104 -67.789917 590018.000000 1.000000 1.000000 -1129944.125000 27.000000 0.000000 
6799.508750 -1471.539897 -666.734894 579117.000000 1.000000 1.000000 -1129945.750000 45.000000 0.000000 
7167.737266 -273.068950 -34.151367 9161798.000000 6.000000 5.000000 -1128794.125000 0.000000 1.000000 
5931.885703 -1362.679607 -16.542969 4567743.000000 1.000000 1.000000 -1129278.875000 0.000000 0.000000 
5878.353477 -846.773418 -108.003296 9466438.000000 7.000000 5.000000 -1128747.625000 0.000000 1.000000 
6103.066367 -272.430034 -219.012024 6662415.000000 7.000000 7.000000 -1129133.875000 0.000000 0.000000 
6102.153281 -872.779583 -160.424011 10962619.000000 1.000000 1.000000 -1128527.375000 0.000000 1.000000 
6764.189414 -1471.518795 -162.375488 893833.000000 1.000000 1.000000 -1129863.250000 44.000000 0.000000 
6298.914023 -1471.508297 -169.852417 1191492.000000 1.000000 1.000000 -1129769.875000 49.000000 0.000000 
5935.562461 -79.685039 -965.809402 11558532.000000 7.000000 2.000000 -1128446.625000 0.000000 1.000000 
6197.546836 -1471.503093 -446.941223 246249.000000 1.000000 1.000000 -1130012.500000 21.000000 0.000000 
6528.393516 -1471.519496 -696.847900 882723.000000 1.000000 1.000000 -1129865.000000 33.000000 0.000000 
6004.627891 -1305.203685 -16.585449 6069375.000000 4.000000 1.000000 -1129185.000000 0.000000 0.000000 
6994.360312 -1517.666393 16.215210 274307.000000 1.000000 1.000000 -1130009.125000 7.000000 0.000000 
6629.280234 -351.520488 -176.439026 1184059.000000 1.000000 1.000000 -1129771.750000 14.000000 0.000000 
7085.536094 -1485.808803 18.171753 905377.000000 7.000000 3.000000 -1129861.500000 0.000000 0.000000 
6348.540000 -1569.377201 -843.502289 873700.000000 1.000000 1.000000 -1129866.375000 29.000000 0.000000 
6406.292930 -1464.091198 15.173096 1197363.000000 1.000000 1.000000 -1129768.500000 9.000000 0.000000 
6002.154258 -1098.206401 -715.173706 10664351.000000 1.000000 1.000000 -1128568.875000 0.000000 1.000000 
6628.200156 -1471.510402 -670.419495 571627.000000 1.000000 1.000000 -1129946.750000 51.000000 0.000000 
7032.551719 -351.497783 -487.789490 1501730.000000 1.000000 1.000000 -1129650.500000 3.000000 0.000000 
6584.436484 -1471.546794 -579.322815 885589.000000 1.000000 1.000000 -1129864.500000 39.000000 0.000000 
6026.640586 -1471.540798 -123.833862 546198.000000 1.000000 1.000000 -1129950.250000 31.000000 0.000000 
6019.441367 -392.406597 -16.866821 7264902.000000 7.000000 5.000000 -1129069.625000 0.000000 0.000000 
6222.030234 -1391.259410 -56.821899 5468077.000000 4.000000 2.000000 -1129228.375000 0.000000 0.000000 
6491.147422 -1471.534999 -284.457520 880748.000000 1.000000 1.000000 -1129865.250000 70.000000 0.000000 
6212.164023 -270.073467 -807.031311 7263435.000000 7.000000 1.000000 -1129069.750000 0.000000 0.000000 
6558.666953 -351.522075 -272.356201 1182311.000000 1.000000 1.000000 -1129772.125000 14.000000 0.000000 
5949.276328 -1466.529506 -18.437378 850705.000000 1.000000 1.000000 -1129871.250000 68.000000 0.000000 
6408.599570 -1391.194591 -246.584778 3661454.000000 7.000000 3.000000 -1129321.625000 0.000000 0.000000 
6429.074180 -1471.525402 -127.891785 1198839.000000 1.000000 1.000000 -1129768.125000 38.000000 0.000000 
6006.661094 -617.996196 -14.236084 6364705.000000 4.000000 2.000000 -1129160.750000 0.000000 0.000000 
6509.790000 -1471.560298 -676.219604 566307.000000 1.000000 1.000000 -1129947.375000 52.000000 0.000000 
6167.427695 -1548.395999 -842.394806 862009.000000 1.000000 1.000000 -1129868.250000 27.000000 0.000000 
6002.248008 -1418.179393 -411.696411 8272939.000000 1.000000 1.000000 -1128932.000000 0.000000 1.000000 
6763.236289 -272.917827 -606.358826 8264820.000000 5.000000 5.000000 -1128932.875000 0.000000 1.000000 
6641.292930 -350.920757 -314.734680 3035234.000000 7.000000 7.000000 -1129366.625000 0.000000 0.000000 
6288.547812 -271.467754 -597.628479 7563803.000000 7.000000 6.000000 -1129035.250000 0.000000 0.000000 
6469.121055 -1561.499103 11.667603 564322.000000 1.000000 1.000000 -1129947.625000 43.000000 0.000000 
6002.175742 -491.718608 -514.205383 10062980.000000 1.000000 1.000000 -1128654.375000 0.000000 1.000000 
6923.462852 -1391.690288 -292.814819 4562420.000000 7.000000 7.000000 -1129279.250000 0.000000 0.000000 
7280.386680 -1479.106105 58.817261 2751515.000000 1.000000 1.000000 -1129383.625000 1.000000 0.000000 
6601.506797 -1471.505901 -817.373291 886436.000000 1.000000 1.000000 -1129864.375000 23.000000 0.000000 
6158.387656 -1471.517803 -146.501221 1181832.000000 1.000000 1.000000 -1129772.250000 71.000000 0.000000 
6638.203086 -1391.830699 -612.537720 4864681.000000 7.000000 7.000000 -1129263.875000 0.000000 0.000000 
5861.098594 -881.739177 -108.004150 9466648.000000 7.000000 5.000000 -1128747.625000 0.000000 1.000000 
6543.861289 -1661.556400 -893.670898 568207.000000 1.000000 1.000000 -1129947.125000 54.000000 0.000000 
6565.077109 -1471.528606 -736.892914 884614.000000 1.000000 1.000000 -1129864.625000 29.000000 0.000000 
6320.684531 -1392.634197 -125.571777 5467587.000000 5.000000 5.000000 -1129228.375000 0.000000 0.000000 
6284.025352 -1661.509500 -896.802704 246331.000000 1.000000 1.000000 -1130012.500000 34.000000 0.000000 
6499.830039 -271.506450 -592.255615 13056811.000000 7.000000 4.000000 -1128276.375000 0.000000 1.000000 
6807.406211 -1505.048198 5.887451 579864.000000 1.000000 1.000000 -1129945.625000 6.000000 0.000000 
6897.227500 -351.466899 -506.010620 1499211.000000 1.000000 1.000000 -1129651.375000 4.000000 0.000000 
6002.429648 -363.973491 -735.705505 6061820.000000 3.000000 3.000000 -1129186.375000 0.000000 0.000000 
7150.835898 -1471.522701 -298.625671 906717.000000 1.000000 1.000000 -1129861.375000 15.000000 0.000000 
6230.264609 -1471.529995 -658.462708 865992.000000 1.000000 1.000000 -1129867.625000 45.000000 0.000000 
6806.287070 -1391.491802 -465.485291 3357233.000000 7.000000 5.000000 -1129339.125000 0.000000 0.000000 
6102.295859 -708.963726 208.658691 1171171.000000 5.000000 5.000000 -1129775.250000 0.000000 0.000000 
6733.673789 -1537.744297 31.540527 1839625.000000 1.000000 1.000000 -1129540.250000 7.000000 0.000000 
6371.465781 -1532.633998 -841.561890 874749.000000 1.000000 1.000000 -1129866.250000 26.000000 0.000000 
5859.834922 -921.330913 -9.302368 1162008.000000 1.000000 1.000000 -1129779.250000 1.000000 0.000000 
6001.965781 -1241.982006 -806.252106 8570931.000000 2.000000 1.000000 -1128884.625000 0.000000 1.000000 
6784.798789 -1471.474605 -560.241699 1212217.000000 1.000000 1.000000 -1129765.750000 4.000000 0.000000 
6776.364219 -1391.458110 -176.819519 7568489.000000 7.000000 4.000000 -1129034.750000 0.000000 0.000000 
6719.609336 -1471.531200 -210.932983 575671.000000 1.000000 1.000000 -1129946.250000 47.000000 0.000000 
6726.344687 -1471.524898 -696.925110 575968.000000 1.000000 1.000000 -1129946.125000 47.000000 0.000000 
6726.523398 -1661.484100 -914.156296 898271.000000 1.000000 1.000000 -1129862.625000 12.000000 0.000000 
6231.721641 -1471.517192 -287.438782 1187087.000000 1.000000 1.000000 -1129770.875000 40.000000 0.000000 
6202.340781 -1471.535701 -603.625671 246393.000000 1.000000 1.000000 -1130012.500000 23.000000 0.000000 
6677.834922 -271.063701 -724.449799 5757529.000000 7.000000 4.000000 -1129209.500000 0.000000 0.000000 
6755.742148 -273.045513 -279.219116 9461889.000000 6.000000 5.000000 -1128748.000000 0.000000 1.000000 
6404.653281 -1471.543193 -457.098206 561609.000000 1.000000 1.000000 -1129948.000000 54.000000 0.000000 
6798.889609 -1471.505199 -801.020691 895254.000000 1.000000 1.000000 -1129863.000000 17.000000 0.000000 
7160.336875 -1391.053112 -18.831055 6666120.000000 7.000000 3.000000 -1129133.375000 0.000000 0.000000 
5955.310508 -522.171245 -16.776611 1788737.000000 1.000000 1.000000 -1129549.625000 8.000000 0.000000 
7039.492148 -1471.538906 -254.257690 275644.000000 1.000000 1.000000 -1130008.875000 25.000000 0.000000 
6747.132773 -1548.436397 -842.437408 264880.000000 7.000000 5.000000 -1130010.500000 0.000000 0.000000 
6360.084922 -271.348613 -361.762512 5457300.000000 7.000000 5.000000 -1129229.875000 0.000000 0.000000 
6784.948203 -1471.477108 -809.039215 1212222.000000 1.000000 1.000000 -1129765.750000 2.000000 0.000000 
6975.815391 -1392.537090 -421.428528 6366313.000000 7.000000 7.000000 -1129160.500000 0.000000 0.000000 
6316.680625 -1471.533397 -780.518097 557770.000000 1.000000 1.000000 -1129948.500000 45.000000 0.000000 
6608.630820 -271.512676 -573.210083 13356411.000000 7.000000 5.000000 -1128249.500000 0.000000 1.000000 
6790.340781 -1516.212703 -840.676910 266560.000000 7.000000 4.000000 -1130010.375000 0.000000 0.000000 
6985.768516 -351.482158 -192.017822 1809591.000000 1.000000 1.000000 -1129545.500000 1.000000 0.000000 
7125.649375 -351.504863 -332.037720 1194911.000000 1.000000 1.000000 -1129769.000000 7.000000 0.000000 
6791.461875 -204.995708 34.391479 3032850.000000 1.000000 1.000000 -1129367.750000 1.000000 0.000000 
6204.420859 -1471.535793 -239.282776 246454.000000 1.000000 1.000000 -1130012.500000 17.000000 0.000000 
6204.445273 -1471.528301 -282.445007 246455.000000 1.000000 1.000000 -1130012.500000 18.000000 0.000000 
6312.201133 -210.778545 -842.048492 6962016.000000 5.000000 4.000000 -1129103.250000 0.000000 0.000000 
6204.495078 -1471.516002 -366.354919 246457.000000 1.000000 1.000000 -1130012.500000 20.000000 0.000000 
6712.295859 -1471.531002 -634.038025 891610.000000 1.000000 1.000000 -1129863.625000 28.000000 0.000000 
6676.967734 -1471.508800 -668.795807 573797.000000 1.000000 1.000000 -1129946.500000 50.000000 0.000000 
6489.594687 -272.520000 -253.507996 6961873.000000 7.000000 7.000000 -1129103.250000 0.000000 0.000000 
6345.475547 -1471.522197 -259.626099 559012.000000 1.000000 1.000000 -1129948.375000 48.000000 0.000000 
6708.940391 -1471.530498 -342.156494 891460.000000 1.000000 1.000000 -1129863.625000 44.000000 0.000000 
7047.133750 -1471.529094 -267.494324 588904.000000 1.000000 1.000000 -1129944.250000 33.000000 0.000000 
6204.700156 -1471.540493 -641.806702 246464.000000 1.000000 1.000000 -1130012.500000 24.000000 0.000000 
6249.420859 -219.725933 7.223145 4853832.000000 1.000000 1.000000 -1129265.000000 0.000000 0.000000 
6248.532187 -1471.524807 -823.514008 867047.000000 1.000000 1.000000 -1129867.375000 30.000000 0.000000 
6330.637656 -1471.536602 -110.877563 871780.000000 1.000000 1.000000 -1129866.625000 89.000000 0.000000 
6348.138633 -1515.161800 11.931885 5468426.000000 2.000000 2.000000 -1129228.250000 0.000000 0.000000 
6296.897422 -1521.164501 9.729614 1193305.000000 1.000000 1.000000 -1129769.375000 17.000000 0.000000 
6801.215781 -1471.553798 -756.906311 579190.000000 1.000000 1.000000 -1129945.750000 42.000000 0.000000 
6566.428672 -1391.273815 -197.856689 2753063.000000 7.000000 3.000000 -1129383.125000 0.000000 0.000000 
6449.814414 -1471.505504 -125.378052 878501.000000 1.000000 1.000000 -1129865.625000 80.000000 0.000000 
6489.316367 -1390.922588 -340.060608 4564592.000000 7.000000 3.000000 -1129279.000000 0.000000 0.000000 
5962.446250 -959.302104 -10.211670 1800854.000000 1.000000 1.000000 -1129547.125000 20.000000 0.000000 
6747.527305 -1471.484493 -724.704712 1211171.000000 1.000000 1.000000 -1129766.000000 3.000000 0.000000 
5911.428672 -1603.297401 -845.307190 539571.000000 1.000000 1.000000 -1129952.750000 2.000000 0.000000 
5822.450156 -273.771343 -876.052612 6362680.000000 3.000000 3.000000 -1129161.125000 0.000000 0.000000 
6875.793906 -1489.508297 -848.114685 582553.000000 1.000000 1.000000 -1129945.250000 1.000000 0.000000 
6524.025352 -351.082378 -280.968323 2728564.000000 7.000000 6.000000 -1129395.125000 0.000000 0.000000 
6876.651328 -1392.415203 -717.432312 3356884.000000 7.000000 7.000000 -1129339.125000 0.000000 0.000000 
6494.742148 -271.138286 -637.027405 6059228.000000 7.000000 4.000000 -1129186.625000 0.000000 0.000000 
6427.322227 -1471.532497 -623.763123 877261.000000 1.000000 1.000000 -1129865.875000 43.000000 0.000000 
6011.484336 -272.869731 -653.737000 6963486.000000 7.000000 7.000000 -1129103.125000 0.000000 0.000000 
6112.948203 -1471.545604 -530.311584 549431.000000 1.000000 1.000000 -1129949.750000 41.000000 0.000000 
6068.682578 -1471.512401 -311.791809 856878.000000 1.000000 1.000000 -1129869.125000 75.000000 0.000000 
6665.061484 -1563.808696 -843.229187 891968.000000 1.000000 1.000000 -1129863.625000 21.000000 0.000000 
5959.153281 -1189.235393 -16.152344 6669483.000000 7.000000 5.000000 -1129132.750000 0.000000 0.000000 
