ply
format ascii 1.0
comment Created by CloudCompare v2.12 alpha
comment Created 6/8/2021 9:02 PM
obj_info Generated by CloudCompare!
element vertex 462
property double x
property double y
property double z
property float scalar_fullwaveIndex
property float scalar_NumberOfReturns
property float scalar_ReturnNumber
property float scalar_GpsTime
property float scalar_Intensity
property float scalar_Original_cloud_index
end_header
6367.857383 -79.272197 -867.752808 13319659.000000 7.000000 2.000000 -783723.812500 0.000000 2.000000 
7286.826133 -351.545513 -14.496460 3586220.000000 7.000000 5.000000 -784692.812500 0.000000 0.000000 
6825.290000 -270.128887 -803.246490 12720669.000000 7.000000 4.000000 -783791.437500 0.000000 2.000000 
6265.417930 -272.189312 -161.698486 7923321.000000 7.000000 7.000000 -784448.375000 0.000000 1.000000 
6808.592734 -133.347759 -846.348511 9127225.000000 7.000000 6.000000 -784315.000000 0.000000 2.000000 
6002.315391 -1281.040691 -694.841705 3786094.000000 2.000000 2.000000 -784679.750000 0.000000 0.000000 
5921.580039 -545.337139 -16.686646 4897922.000000 6.000000 5.000000 -784618.437500 0.000000 1.000000 
5937.212852 -102.332256 -847.837708 13619819.000000 7.000000 6.000000 -783688.812500 0.000000 2.000000 
6401.186484 -351.587627 -219.114380 2990708.000000 7.000000 4.000000 -784732.562500 0.000000 0.000000 
6802.722617 -1391.563610 20.166260 11826557.000000 7.000000 5.000000 -783922.250000 0.000000 2.000000 
5907.688437 -896.696208 -8.828247 4597832.000000 6.000000 4.000000 -784632.812500 0.000000 1.000000 
6524.903281 -272.020854 -575.506409 8829541.000000 7.000000 7.000000 -784354.375000 0.000000 1.000000 
6843.233359 -190.109478 -841.677185 10623752.000000 7.000000 2.000000 -784096.687500 0.000000 2.000000 
6228.959922 -1471.550396 -558.341919 3589720.000000 7.000000 6.000000 -784692.250000 0.000000 0.000000 
6438.330039 -273.793682 -609.906616 14518967.000000 7.000000 7.000000 -783602.312500 0.000000 2.000000 
5892.636680 -781.025188 -844.377502 11226942.000000 7.000000 4.000000 -784005.750000 0.000000 2.000000 
6598.523398 -1472.314998 -375.396606 2205263.000000 7.000000 2.000000 -784782.937500 0.000000 0.000000 
6630.910117 -1393.152812 -176.312012 10031340.000000 7.000000 7.000000 -784185.125000 0.000000 2.000000 
6722.174766 -271.463359 -737.737915 6712463.000000 7.000000 6.000000 -784529.500000 0.000000 1.000000 
6396.793906 -269.983501 -654.833099 8527702.000000 7.000000 1.000000 -784388.187500 0.000000 1.000000 
6600.330039 -1471.547298 -377.595703 2205263.000000 7.000000 6.000000 -784782.937500 0.000000 0.000000 
6577.334922 -96.646587 -845.771790 11522061.000000 7.000000 1.000000 -783962.125000 0.000000 2.000000 
5833.337852 -1661.423400 -859.860107 3787797.000000 7.000000 7.000000 -784679.562500 0.000000 0.000000 
7048.335898 -1389.943492 -110.256836 8834017.000000 7.000000 1.000000 -784353.937500 0.000000 1.000000 
6543.960898 -83.012065 -921.529999 7316424.000000 7.000000 7.000000 -784493.250000 0.000000 1.000000 
6519.723594 -1392.924114 -51.374512 9134711.000000 7.000000 7.000000 -784314.312500 0.000000 2.000000 
7165.458945 -350.794658 -60.490112 5200669.000000 7.000000 7.000000 -784604.250000 0.000000 1.000000 
6181.742148 -79.519390 -960.266495 12121541.000000 7.000000 1.000000 -783884.312500 0.000000 2.000000 
6612.428672 -1472.615306 -389.690613 2205309.000000 7.000000 1.000000 -784782.937500 0.000000 0.000000 
6248.623008 -272.747539 -209.088379 7015562.000000 7.000000 7.000000 -784511.750000 0.000000 1.000000 
6018.039023 -270.296733 -516.083191 7015844.000000 7.000000 3.000000 -784511.687500 0.000000 1.000000 
6406.944297 -1552.860500 16.413574 6721910.000000 7.000000 1.000000 -784527.500000 0.000000 1.000000 
6547.570273 -1472.111705 -430.790710 3590133.000000 7.000000 4.000000 -784692.187500 0.000000 0.000000 
6008.649375 -1058.035198 -12.751831 2993515.000000 2.000000 1.000000 -784732.125000 0.000000 0.000000 
5934.956016 -1009.618389 -9.716553 10330380.000000 7.000000 1.000000 -784141.375000 0.000000 2.000000 
5926.415977 -454.459453 -842.490509 9729435.000000 7.000000 4.000000 -784229.625000 0.000000 2.000000 
6955.635703 -1541.114299 42.245239 2998159.000000 4.000000 4.000000 -784731.562500 0.000000 0.000000 
6535.796836 -350.593608 -210.670105 3189105.000000 7.000000 6.000000 -784719.500000 0.000000 0.000000 
6617.590781 -1470.431407 -395.967896 2205309.000000 7.000000 7.000000 -784782.937500 0.000000 0.000000 
7208.713828 -270.212383 -77.150146 9127011.000000 7.000000 2.000000 -784315.000000 0.000000 2.000000 
7148.688437 -352.853862 -30.966553 2992546.000000 7.000000 1.000000 -784732.250000 0.000000 0.000000 
6917.973594 -272.383647 -450.032471 10923420.000000 7.000000 6.000000 -784050.625000 0.000000 2.000000 
6383.745078 -1471.425899 -760.877106 3392289.000000 7.000000 7.000000 -784705.000000 0.000000 0.000000 
6846.821250 -270.815166 -200.972229 9726211.000000 7.000000 4.000000 -784229.875000 0.000000 2.000000 
5821.998008 -1151.151897 -960.359497 3785175.000000 3.000000 2.000000 -784679.875000 0.000000 0.000000 
6501.324180 -352.746929 -4.658691 4594890.000000 7.000000 2.000000 -784633.375000 0.000000 1.000000 
6517.696250 -1516.614894 -839.544891 4603224.000000 5.000000 1.000000 -784631.750000 0.000000 1.000000 
6630.191367 -1471.330699 -408.664917 2205355.000000 7.000000 7.000000 -784782.937500 0.000000 0.000000 
6047.886680 -277.721538 89.489746 3781491.000000 5.000000 2.000000 -784680.687500 0.000000 0.000000 
5901.420859 -636.223857 -844.501312 8833743.000000 6.000000 5.000000 -784354.000000 0.000000 1.000000 
5928.112266 -1422.553905 -15.412354 3589029.000000 7.000000 6.000000 -784692.312500 0.000000 0.000000 
6051.723594 -80.877910 -982.927094 10026165.000000 7.000000 4.000000 -784185.687500 0.000000 2.000000 
5886.912070 -553.955547 -843.437286 14520438.000000 7.000000 3.000000 -783602.187500 0.000000 2.000000 
6535.527305 -1517.209606 21.504395 2205400.000000 1.000000 1.000000 -784782.937500 0.000000 0.000000 
6384.594687 -270.406719 -606.246826 9428154.000000 7.000000 2.000000 -784271.625000 0.000000 2.000000 
5934.940391 -178.553936 -842.040009 8528474.000000 5.000000 1.000000 -784388.125000 0.000000 1.000000 
6050.370078 -271.491924 -807.383392 8831013.000000 7.000000 5.000000 -784354.312500 0.000000 1.000000 
5868.345664 -846.442729 -846.187408 11227292.000000 7.000000 5.000000 -784005.687500 0.000000 2.000000 
5847.486289 -621.169048 -846.826599 7624285.000000 4.000000 2.000000 -784471.375000 0.000000 1.000000 
7062.620078 -352.961406 21.563110 5502999.000000 7.000000 2.000000 -784590.687500 0.000000 1.000000 
6080.285117 -722.830608 -13.487549 11825018.000000 7.000000 7.000000 -783922.437500 0.000000 2.000000 
6977.057578 -1428.833004 43.813599 4300469.000000 7.000000 4.000000 -784648.625000 0.000000 1.000000 
5951.868125 -83.008403 -973.117798 8225305.000000 7.000000 7.000000 -784419.437500 0.000000 1.000000 
7037.738242 -1392.677806 -349.190979 7928359.000000 7.000000 7.000000 -784447.625000 0.000000 1.000000 
6340.319297 -79.389141 -954.376907 12720460.000000 7.000000 2.000000 -783791.437500 0.000000 2.000000 
6539.853477 -1390.799297 -98.628784 10629839.000000 7.000000 4.000000 -784096.062500 0.000000 2.000000 
6537.531211 -1522.425304 21.596802 2205446.000000 1.000000 1.000000 -784782.937500 0.000000 0.000000 
6124.022422 -1661.184000 -944.035797 2799629.000000 7.000000 7.000000 -784744.250000 0.000000 0.000000 
6092.995078 -271.067485 -95.857056 8830870.000000 7.000000 3.000000 -784354.312500 0.000000 1.000000 
6658.148398 -1472.086696 -437.382996 2205447.000000 7.000000 3.000000 -784782.937500 0.000000 0.000000 
5800.257773 -1280.889812 -19.433105 9136602.000000 7.000000 7.000000 -784313.937500 0.000000 2.000000 
6450.051719 -270.020854 -283.908997 8829750.000000 7.000000 1.000000 -784354.375000 0.000000 1.000000 
6027.039023 -1014.204509 -12.090820 5204592.000000 6.000000 5.000000 -784603.625000 0.000000 1.000000 
6041.121055 -1112.521282 -13.649536 5508252.000000 6.000000 2.000000 -784588.750000 0.000000 1.000000 
6069.005820 -271.498027 -433.347473 7621203.000000 7.000000 5.000000 -784471.812500 0.000000 1.000000 
5964.875937 -420.972759 -16.142700 5199832.000000 6.000000 1.000000 -784604.437500 0.000000 1.000000 
6526.299766 -82.721904 -981.583405 11222602.000000 7.000000 7.000000 -784006.187500 0.000000 2.000000 
6035.463828 -1119.163982 -13.817627 5205432.000000 6.000000 2.000000 -784603.375000 0.000000 1.000000 
5822.197227 -676.477825 -865.113312 13622129.000000 1.000000 1.000000 -783688.437500 0.000000 2.000000 
6102.304648 -861.024395 -1.976196 10927619.000000 1.000000 1.000000 -784050.250000 0.000000 2.000000 
6779.169883 -306.625713 34.854370 11223228.000000 7.000000 3.000000 -784006.125000 0.000000 2.000000 
5915.094687 -509.900737 -17.023193 9430812.000000 7.000000 4.000000 -784271.437500 0.000000 2.000000 
5916.134727 -900.989910 -844.823792 11826071.000000 7.000000 7.000000 -783922.312500 0.000000 2.000000 
6838.360312 -348.241558 37.225586 9128341.000000 7.000000 3.000000 -784314.937500 0.000000 2.000000 
6002.360312 -1330.998302 -774.989899 3588663.000000 2.000000 2.000000 -784692.375000 0.000000 0.000000 
5836.101523 -553.044414 -16.162720 4595032.000000 7.000000 5.000000 -784633.312500 0.000000 1.000000 
6161.329062 -1515.437694 1.860352 6419581.000000 6.000000 6.000000 -784543.250000 0.000000 1.000000 
6801.530234 -1391.634807 -313.310913 7324680.000000 7.000000 5.000000 -784492.000000 0.000000 1.000000 
6675.860312 -1470.971508 -456.260071 2205493.000000 7.000000 7.000000 -784782.937500 0.000000 0.000000 
5848.479453 -1033.214275 -846.056213 10031694.000000 7.000000 2.000000 -784185.062500 0.000000 2.000000 
6138.085898 -1470.954402 -646.366302 2600311.000000 7.000000 7.000000 -784757.562500 0.000000 0.000000 
6401.194297 -1489.197597 -838.072693 3997654.000000 6.000000 1.000000 -784666.500000 0.000000 1.000000 
6693.180625 -1472.175197 -828.269501 2799581.000000 7.000000 3.000000 -784744.250000 0.000000 0.000000 
5840.316367 -1183.922893 -15.079956 8837099.000000 7.000000 2.000000 -784353.437500 0.000000 1.000000 
7072.309531 -1422.572094 48.558105 8230407.000000 7.000000 4.000000 -784418.812500 0.000000 1.000000 
6661.158164 -1430.791606 29.179321 13024746.000000 7.000000 3.000000 -783756.062500 0.000000 2.000000 
7094.085898 -319.721050 48.915405 14218875.000000 7.000000 6.000000 -783627.937500 0.000000 2.000000 
5845.818320 -596.572979 -844.842194 12723190.000000 7.000000 1.000000 -783791.250000 0.000000 2.000000 
6968.793906 -242.144878 43.430054 2991626.000000 6.000000 3.000000 -784732.375000 0.000000 0.000000 
6158.249961 -120.443584 -847.385406 7014515.000000 6.000000 6.000000 -784511.812500 0.000000 1.000000 
6132.607383 -226.170513 -840.308289 7015355.000000 5.000000 2.000000 -784511.750000 0.000000 1.000000 
6705.806602 -1470.192607 -505.508972 4300472.000000 7.000000 7.000000 -784648.625000 0.000000 1.000000 
7019.413047 -1393.177593 -436.544373 5812541.000000 7.000000 7.000000 -784573.812500 0.000000 1.000000 
5936.032187 -83.210796 -872.435211 12121891.000000 7.000000 7.000000 -783884.312500 0.000000 2.000000 
6935.906211 -1529.020504 39.579956 12725216.000000 7.000000 7.000000 -783790.937500 0.000000 2.000000 
7190.075156 -1391.025402 -170.456299 8833597.000000 7.000000 3.000000 -784354.000000 0.000000 1.000000 
6168.421836 -1629.538299 -845.605194 3590457.000000 4.000000 1.000000 -784692.187500 0.000000 0.000000 
6480.748984 -198.614238 19.306519 7619870.000000 7.000000 3.000000 -784471.875000 0.000000 1.000000 
7146.882773 -1392.681102 -148.737671 7928078.000000 7.000000 7.000000 -784447.687500 0.000000 1.000000 
5955.040000 -360.299053 -16.526855 5199342.000000 6.000000 5.000000 -784604.500000 0.000000 1.000000 
6024.797812 -480.468486 -18.400146 8530150.000000 7.000000 6.000000 -784387.937500 0.000000 1.000000 
5830.521445 -788.581401 -11.151245 7020182.000000 5.000000 5.000000 -784510.812500 0.000000 1.000000 
6705.406211 -1471.328395 -486.850586 2205585.000000 7.000000 7.000000 -784782.937500 0.000000 0.000000 
5846.763633 -1441.755199 -15.379517 12726547.000000 7.000000 6.000000 -783790.750000 0.000000 2.000000 
6434.977500 -272.717021 -245.812927 14518966.000000 7.000000 7.000000 -783602.312500 0.000000 2.000000 
6207.541953 -278.233501 5.956543 3988830.000000 7.000000 2.000000 -784668.125000 0.000000 1.000000 
6785.272422 -1500.099605 -838.616791 3788071.000000 6.000000 1.000000 -784679.562500 0.000000 0.000000 
6402.361289 -273.289409 -422.964905 10624941.000000 7.000000 7.000000 -784096.625000 0.000000 2.000000 
5930.398398 -362.982158 -842.808594 7622185.000000 4.000000 4.000000 -784471.687500 0.000000 1.000000 
5999.276328 -328.595195 -15.983154 7924371.000000 7.000000 7.000000 -784448.250000 0.000000 1.000000 
6813.123984 -272.505229 -578.929016 12121539.000000 7.000000 7.000000 -783884.312500 0.000000 2.000000 
6327.654258 -1392.398815 -81.348145 6418391.000000 7.000000 7.000000 -784543.437500 0.000000 1.000000 
6268.032187 -170.664653 -843.614105 10026164.000000 7.000000 4.000000 -784185.687500 0.000000 2.000000 
6252.355430 -203.427593 -842.611786 9129116.000000 7.000000 6.000000 -784314.937500 0.000000 2.000000 
6332.079062 -338.926250 11.598633 6410551.000000 6.000000 3.000000 -784544.937500 0.000000 1.000000 
5774.517539 -975.896709 -9.588989 3586407.000000 5.000000 1.000000 -784692.750000 0.000000 0.000000 
6798.914023 -236.244731 34.879150 8828558.000000 7.000000 4.000000 -784354.437500 0.000000 1.000000 
7037.034141 -351.959941 -178.746521 3190208.000000 7.000000 4.000000 -784719.250000 0.000000 0.000000 
6526.777305 -273.087505 -836.308990 8829542.000000 7.000000 7.000000 -784354.375000 0.000000 1.000000 
6729.896445 -272.247173 -743.180511 6712463.000000 7.000000 7.000000 -784529.500000 0.000000 1.000000 
7183.623008 -270.793682 -67.608032 9725510.000000 7.000000 5.000000 -784229.875000 0.000000 2.000000 
6885.042930 -272.919414 -696.683411 13319868.000000 7.000000 7.000000 -783723.812500 0.000000 2.000000 
6562.206016 -1460.506496 22.788696 3787655.000000 6.000000 4.000000 -784679.562500 0.000000 0.000000 
6144.403281 -82.774517 -879.637207 7316985.000000 7.000000 7.000000 -784493.250000 0.000000 1.000000 
5935.697227 -80.086284 -994.833893 10624874.000000 7.000000 2.000000 -784096.625000 0.000000 2.000000 
6031.160117 -1362.633586 -15.324585 4904502.000000 6.000000 1.000000 -784617.250000 0.000000 1.000000 
6622.643516 -1486.328304 25.653809 9433750.000000 7.000000 5.000000 -784271.000000 0.000000 2.000000 
6625.782187 -351.590923 -460.217407 2793185.000000 7.000000 5.000000 -784745.125000 0.000000 0.000000 
6736.242148 -1471.330501 -518.966614 2205677.000000 7.000000 7.000000 -784782.937500 0.000000 0.000000 
5970.377891 -349.266582 -838.758392 9728735.000000 7.000000 1.000000 -784229.750000 0.000000 2.000000 
6322.845664 -193.027080 -843.653595 8527423.000000 6.000000 6.000000 -784388.187500 0.000000 1.000000 
6102.286094 -885.589092 105.597656 7625470.000000 2.000000 2.000000 -784471.125000 0.000000 1.000000 
7205.570273 -340.223857 56.754150 10025109.000000 7.000000 1.000000 -784185.750000 0.000000 2.000000 
6397.466758 -273.462017 -137.926270 13020757.000000 7.000000 7.000000 -783756.500000 0.000000 2.000000 
6384.061484 -270.009014 -371.719116 9428153.000000 7.000000 1.000000 -784271.625000 0.000000 2.000000 
6748.590781 -1472.650997 -531.297485 2205723.000000 7.000000 1.000000 -784782.937500 0.000000 0.000000 
6044.276328 -1224.236797 -17.040039 5206272.000000 6.000000 4.000000 -784603.125000 0.000000 1.000000 
5713.902305 -1415.793895 -15.538818 5510843.000000 4.000000 3.000000 -784587.750000 0.000000 1.000000 
6176.234336 -1471.137706 -355.276917 2798477.000000 7.000000 7.000000 -784744.375000 0.000000 0.000000 
6274.475547 -273.507061 -198.405212 13320497.000000 7.000000 7.000000 -783723.750000 0.000000 2.000000 
6976.346641 -181.465923 36.508667 8525668.000000 7.000000 5.000000 -784388.250000 0.000000 1.000000 
6470.436484 -1392.564891 -149.913025 9433751.000000 7.000000 6.000000 -784271.000000 0.000000 2.000000 
5866.304648 -1107.403301 -15.290283 9733071.000000 7.000000 7.000000 -784229.125000 0.000000 2.000000 
6947.184531 -1391.596294 -265.821289 6719810.000000 7.000000 5.000000 -784527.937500 0.000000 1.000000 
5959.881797 -805.913127 -10.181274 4900022.000000 6.000000 5.000000 -784618.062500 0.000000 1.000000 
6625.849570 -1392.211193 -215.887390 7325100.000000 7.000000 6.000000 -784491.875000 0.000000 1.000000 
6015.108359 -557.065654 -16.387451 6412442.000000 6.000000 5.000000 -784544.437500 0.000000 1.000000 
6290.359336 -187.475933 8.895020 5501181.000000 6.000000 5.000000 -784591.312500 0.000000 1.000000 
5847.006797 -83.102886 -889.992188 10026655.000000 7.000000 7.000000 -784185.625000 0.000000 2.000000 
5977.933555 -103.905986 -847.700409 8527844.000000 6.000000 5.000000 -784388.125000 0.000000 1.000000 
6102.262656 -691.228313 173.685547 12124267.000000 1.000000 1.000000 -783884.125000 0.000000 2.000000 
7124.027305 -269.470317 -257.676392 11821588.000000 7.000000 2.000000 -783922.687500 0.000000 2.000000 
5985.497031 -896.431499 -6.840576 11825928.000000 7.000000 2.000000 -783922.312500 0.000000 2.000000 
6381.056602 -1472.890102 -260.957703 4602802.000000 7.000000 2.000000 -784631.812500 0.000000 1.000000 
6597.972617 -272.223735 -438.061279 7015142.000000 7.000000 7.000000 -784511.812500 0.000000 1.000000 
5943.091758 -277.194438 -14.480347 10027491.000000 7.000000 3.000000 -784185.625000 0.000000 2.000000 
6216.937461 -1608.082698 -845.740509 5209285.000000 5.000000 3.000000 -784601.937500 0.000000 1.000000 
5681.797812 -1410.325801 -15.091553 4601683.000000 6.000000 2.000000 -784632.000000 0.000000 1.000000 
6484.419883 -1635.179000 -847.530396 5814714.000000 6.000000 5.000000 -784573.125000 0.000000 1.000000 
6818.687461 -1456.890102 35.611572 2205813.000000 1.000000 1.000000 -784782.937500 0.000000 0.000000 
6957.012656 -1472.830699 -297.516479 2997792.000000 7.000000 1.000000 -784731.562500 0.000000 0.000000 
6102.278281 -866.380596 121.236816 2794473.000000 2.000000 2.000000 -784744.937500 0.000000 0.000000 
6297.540000 -269.610332 -766.784790 11523251.000000 7.000000 1.000000 -783962.125000 0.000000 2.000000 
6500.440391 -271.561016 -348.178711 13619887.000000 7.000000 6.000000 -783688.812500 0.000000 2.000000 
6002.188437 -537.950054 -696.324097 10327863.000000 1.000000 1.000000 -784141.687500 0.000000 2.000000 
6044.678672 -518.029644 -17.054443 5806382.000000 6.000000 4.000000 -784576.000000 0.000000 1.000000 
6138.614219 -1519.710002 -840.449585 4300195.000000 5.000000 2.000000 -784648.687500 0.000000 1.000000 
5961.343711 -1137.768474 -13.497681 7325101.000000 7.000000 1.000000 -784491.875000 0.000000 1.000000 
6643.171836 -286.505352 27.429565 5502230.000000 7.000000 3.000000 -784590.937500 0.000000 1.000000 
6181.990195 -1470.297603 -348.211121 2996414.000000 7.000000 7.000000 -784731.687500 0.000000 0.000000 
6544.633750 -83.005474 -850.529999 10923142.000000 7.000000 7.000000 -784050.625000 0.000000 2.000000 
6304.216758 -270.046245 -113.329956 9428362.000000 7.000000 1.000000 -784271.625000 0.000000 2.000000 
6549.718711 -152.261089 -844.836914 6409084.000000 6.000000 4.000000 -784545.187500 0.000000 1.000000 
5906.260703 -1611.871700 -845.605804 4906466.000000 4.000000 2.000000 -784616.812500 0.000000 1.000000 
6782.025352 -1471.864101 -566.501221 2205815.000000 7.000000 4.000000 -784782.937500 0.000000 0.000000 
6554.470664 -273.079570 -454.045471 7317752.000000 7.000000 7.000000 -784493.187500 0.000000 1.000000 
7028.947227 -1561.331699 46.757935 4603849.000000 7.000000 3.000000 -784631.687500 0.000000 1.000000 
7017.882773 -311.300640 44.583008 6712529.000000 7.000000 7.000000 -784529.500000 0.000000 1.000000 
5830.229453 -1242.390300 -16.823975 10331780.000000 7.000000 4.000000 -784141.062500 0.000000 2.000000 
6784.172812 -1470.996303 -569.094604 2205815.000000 7.000000 7.000000 -784782.937500 0.000000 0.000000 
5745.533164 -1321.427898 -17.898315 8838219.000000 7.000000 6.000000 -784353.250000 0.000000 1.000000 
6902.567344 -1439.612407 40.059204 6417829.000000 7.000000 4.000000 -784543.562500 0.000000 1.000000 
6381.452109 -315.342998 13.357056 13620166.000000 7.000000 6.000000 -783688.750000 0.000000 2.000000 
6046.209922 -857.837078 -8.306641 8834509.000000 7.000000 4.000000 -784353.875000 0.000000 1.000000 
6573.112266 -1562.295299 2.400391 2205860.000000 7.000000 2.000000 -784782.937500 0.000000 0.000000 
6762.184531 -213.013042 34.222168 7921849.000000 7.000000 1.000000 -784448.437500 0.000000 1.000000 
6574.265586 -1561.831096 1.109497 2205860.000000 7.000000 4.000000 -784782.937500 0.000000 0.000000 
6699.359336 -1472.421398 -438.105530 2997379.000000 7.000000 3.000000 -784731.625000 0.000000 0.000000 
6571.275352 -270.366313 -336.292175 10923980.000000 7.000000 3.000000 -784050.562500 0.000000 2.000000 
6909.363242 -272.414531 -565.551514 11222880.000000 7.000000 6.000000 -784006.125000 0.000000 2.000000 
6674.167930 -1663.020900 -971.629303 4301804.000000 7.000000 2.000000 -784648.562500 0.000000 1.000000 
6789.681602 -149.091411 -845.359802 7316563.000000 6.000000 5.000000 -784493.250000 0.000000 1.000000 
7274.020469 -1474.001796 58.454956 2800589.000000 4.000000 3.000000 -784744.187500 0.000000 0.000000 
6800.588828 -1470.725704 -252.238220 2205860.000000 7.000000 7.000000 -784782.937500 0.000000 0.000000 
6820.570273 -1472.696407 -370.888428 3392885.000000 7.000000 2.000000 -784704.937500 0.000000 0.000000 
6202.337852 -271.574199 -605.751221 11224001.000000 7.000000 5.000000 -784006.125000 0.000000 2.000000 
7023.456016 -268.984355 -382.126770 14518476.000000 7.000000 2.000000 -783602.312500 0.000000 2.000000 
6943.258750 -271.178447 -383.986389 8224110.000000 7.000000 5.000000 -784419.500000 0.000000 1.000000 
6220.153281 -317.396709 4.445679 10326250.000000 7.000000 7.000000 -784141.812500 0.000000 2.000000 
6199.876914 -1459.445400 3.723389 7326640.000000 7.000000 7.000000 -784491.562500 0.000000 1.000000 
5951.435508 -802.035808 -842.865601 11825581.000000 7.000000 7.000000 -783922.375000 0.000000 2.000000 
5803.432578 -1231.978801 -16.969238 8233350.000000 7.000000 4.000000 -784418.250000 0.000000 1.000000 
6997.730430 -273.110454 -491.838196 8526160.000000 7.000000 7.000000 -784388.250000 0.000000 1.000000 
6327.908164 -205.698589 12.224976 2791528.000000 3.000000 1.000000 -784745.375000 0.000000 0.000000 
6801.665977 -1470.368495 -587.615723 2205861.000000 7.000000 7.000000 -784782.937500 0.000000 0.000000 
6822.827109 -1468.169307 35.819946 2205905.000000 1.000000 1.000000 -784782.937500 0.000000 0.000000 
6035.494102 -791.374309 -9.917236 3991911.000000 7.000000 4.000000 -784667.437500 0.000000 1.000000 
6798.149375 -1471.539501 -804.372803 3195225.000000 7.000000 7.000000 -784718.562500 0.000000 0.000000 
6438.827109 -351.978374 -325.282104 2792633.000000 7.000000 4.000000 -784745.187500 0.000000 0.000000 
6149.175742 -1560.023098 2.148682 6419931.000000 6.000000 4.000000 -784543.187500 0.000000 1.000000 
6374.778281 -271.279521 -641.858185 8527772.000000 7.000000 5.000000 -784388.187500 0.000000 1.000000 
6415.283164 -184.932354 -842.815613 7317334.000000 6.000000 3.000000 -784493.187500 0.000000 1.000000 
6004.507773 -855.291973 -7.381958 11825718.000000 7.000000 3.000000 -783922.375000 0.000000 2.000000 
6134.479453 -1405.456798 0.399902 8233209.000000 3.000000 3.000000 -784418.250000 0.000000 1.000000 
6008.757773 -348.082012 -16.689941 11224699.000000 7.000000 7.000000 -784006.000000 0.000000 2.000000 
7065.531211 -233.864849 49.482544 8223618.000000 7.000000 1.000000 -784419.500000 0.000000 1.000000 
6471.498984 -1391.947094 -159.118225 8232019.000000 7.000000 6.000000 -784418.500000 0.000000 1.000000 
5932.397422 -187.881328 -843.283691 8528544.000000 5.000000 4.000000 -784388.125000 0.000000 1.000000 
6737.312461 -251.035137 -838.659698 9128065.000000 7.000000 2.000000 -784314.937500 0.000000 2.000000 
6052.514609 -537.181255 -15.701660 7623161.000000 7.000000 2.000000 -784471.500000 0.000000 1.000000 
6967.692344 -276.094951 42.642822 5199969.000000 7.000000 6.000000 -784604.375000 0.000000 1.000000 
6469.491172 -351.456646 -218.315674 4594821.000000 7.000000 6.000000 -784633.375000 0.000000 1.000000 
6814.768516 -1471.553401 -600.825378 2205907.000000 7.000000 6.000000 -784782.875000 0.000000 0.000000 
6001.975547 -1286.874004 -594.281494 2796822.000000 4.000000 3.000000 -784744.562500 0.000000 0.000000 
6946.618125 -270.419170 -217.083923 9127642.000000 7.000000 3.000000 -784315.000000 0.000000 2.000000 
5920.290977 -600.630718 -842.785889 8833463.000000 6.000000 3.000000 -784354.000000 0.000000 1.000000 
6816.917930 -1470.691600 -603.419617 2205907.000000 7.000000 7.000000 -784782.875000 0.000000 0.000000 
6817.741172 -1470.361995 -604.411804 2205907.000000 7.000000 7.000000 -784782.875000 0.000000 0.000000 
6102.127891 -1066.808696 134.067261 6113541.000000 1.000000 1.000000 -784560.375000 0.000000 1.000000 
6491.485312 -273.907451 19.019409 2990569.000000 4.000000 4.000000 -784732.562500 0.000000 0.000000 
6592.698203 -271.504253 -680.503204 7015143.000000 7.000000 7.000000 -784511.812500 0.000000 1.000000 
7263.588828 -1413.606502 56.860718 12424846.000000 7.000000 7.000000 -783828.812500 0.000000 2.000000 
6592.709922 -270.403057 -778.034088 9128555.000000 7.000000 2.000000 -784314.937500 0.000000 2.000000 
6680.115195 -1533.944599 28.673340 4906040.000000 7.000000 5.000000 -784616.875000 0.000000 1.000000 
6830.771445 -1471.540401 -281.178223 2205952.000000 7.000000 6.000000 -784782.875000 0.000000 0.000000 
6976.717734 -289.102153 43.751709 13020196.000000 7.000000 5.000000 -783756.500000 0.000000 2.000000 
6047.574180 -1471.079494 -566.445923 2996139.000000 7.000000 7.000000 -784731.750000 0.000000 0.000000 
5821.517539 -254.750957 -987.297607 7621626.000000 3.000000 1.000000 -784471.750000 0.000000 1.000000 
7243.824180 -239.198345 57.098145 10024549.000000 7.000000 4.000000 -784185.750000 0.000000 2.000000 
6026.140586 -894.431377 -9.909180 8834789.000000 7.000000 7.000000 -784353.812500 0.000000 1.000000 
6932.915977 -268.708477 -361.083191 14518546.000000 7.000000 1.000000 -783602.312500 0.000000 2.000000 
6361.692344 -351.425640 -65.766357 3782411.000000 7.000000 6.000000 -784680.437500 0.000000 0.000000 
6333.941367 -274.421245 12.720337 6410061.000000 6.000000 1.000000 -784545.000000 0.000000 1.000000 
6002.306602 -1418.210598 -214.887024 2797695.000000 3.000000 3.000000 -784744.437500 0.000000 0.000000 
6030.597617 -814.530620 -9.046753 5505872.000000 6.000000 2.000000 -784589.562500 0.000000 1.000000 
6092.273398 -751.220806 -10.935181 7322021.000000 7.000000 4.000000 -784492.562500 0.000000 1.000000 
5821.882773 -1197.168407 -15.736206 8233070.000000 7.000000 3.000000 -784418.312500 0.000000 1.000000 
6545.065391 -269.995952 -334.397705 8829470.000000 7.000000 1.000000 -784354.375000 0.000000 1.000000 
6517.286094 -272.733501 -630.182007 14518897.000000 7.000000 7.000000 -783602.312500 0.000000 2.000000 
6090.415977 -1051.120708 -13.625854 7928990.000000 7.000000 7.000000 -784447.437500 0.000000 1.000000 
6133.765586 -217.213726 -840.069794 7015285.000000 5.000000 1.000000 -784511.750000 0.000000 1.000000 
6808.609336 -83.565410 -870.606506 12120770.000000 7.000000 7.000000 -783884.312500 0.000000 2.000000 
6313.961875 -1410.923793 9.962280 7930529.000000 7.000000 6.000000 -784447.187500 0.000000 1.000000 
6038.012656 -1662.003600 -851.686096 2799445.000000 7.000000 4.000000 -784744.250000 0.000000 0.000000 
5845.512656 -595.969829 -14.794556 4595382.000000 6.000000 3.000000 -784633.250000 0.000000 1.000000 
6846.612266 -1471.715908 -296.474121 2205998.000000 7.000000 5.000000 -784782.875000 0.000000 0.000000 
6974.881797 -1471.039608 -371.268921 2800085.000000 7.000000 7.000000 -784744.250000 0.000000 0.000000 
6550.413047 -270.424785 -203.750671 9427732.000000 7.000000 3.000000 -784271.687500 0.000000 2.000000 
6888.566367 -1435.901195 39.106201 3590361.000000 6.000000 4.000000 -784692.187500 0.000000 0.000000 
6622.926719 -272.188945 -555.508484 9128484.000000 7.000000 5.000000 -784314.937500 0.000000 2.000000 
6773.242148 -273.339702 -238.315430 11223089.000000 7.000000 7.000000 -784006.125000 0.000000 2.000000 
6680.000937 -255.204814 31.355469 13320006.000000 7.000000 1.000000 -783723.812500 0.000000 2.000000 
6258.987266 -1522.526302 7.559937 7931369.000000 7.000000 5.000000 -784447.000000 0.000000 1.000000 
7091.455039 -350.154521 5.318604 5502999.000000 7.000000 7.000000 -784590.687500 0.000000 1.000000 
6096.235312 -409.276104 -193.440125 9728732.000000 7.000000 5.000000 -784229.750000 0.000000 2.000000 
6987.798789 -273.544414 -320.616821 12121328.000000 7.000000 7.000000 -783884.312500 0.000000 2.000000 
6595.177695 -81.628521 -899.009598 8223693.000000 7.000000 7.000000 -784419.500000 0.000000 1.000000 
6447.771445 -1412.458705 17.064453 6720860.000000 7.000000 5.000000 -784527.750000 0.000000 1.000000 
6703.389609 -205.997417 28.838745 4291929.000000 7.000000 7.000000 -784650.312500 0.000000 1.000000 
6040.133750 -404.292583 -191.092224 10327091.000000 7.000000 7.000000 -784141.750000 0.000000 2.000000 
6352.992148 -272.616558 -629.043884 8527842.000000 7.000000 7.000000 -784388.125000 0.000000 1.000000 
5944.149375 -516.031475 -17.342651 11225609.000000 7.000000 6.000000 -784005.875000 0.000000 2.000000 
6891.482383 -1558.183300 39.068848 9134360.000000 7.000000 5.000000 -784314.375000 0.000000 2.000000 
6333.057578 -329.751445 11.335938 6410481.000000 6.000000 4.000000 -784544.937500 0.000000 1.000000 
7035.183555 -327.099346 47.965454 8224248.000000 7.000000 1.000000 -784419.500000 0.000000 1.000000 
6800.637656 -269.762920 -700.275208 10324852.000000 7.000000 1.000000 -784141.875000 0.000000 2.000000 
6918.868125 -350.024883 -440.131592 4897991.000000 7.000000 7.000000 -784618.437500 0.000000 1.000000 
6049.909141 -198.029033 -842.197510 9727685.000000 7.000000 4.000000 -784229.812500 0.000000 2.000000 
6863.423789 -1471.553798 -312.845093 2206044.000000 7.000000 6.000000 -784782.875000 0.000000 0.000000 
5977.213828 -389.747661 -16.498535 7924861.000000 7.000000 4.000000 -784448.187500 0.000000 1.000000 
6062.557578 -1470.955394 -585.121094 2798202.000000 7.000000 7.000000 -784744.375000 0.000000 0.000000 
6019.613242 -624.029155 -14.147217 7623861.000000 6.000000 3.000000 -784471.437500 0.000000 1.000000 
6379.501914 -188.373149 13.583008 8829469.000000 7.000000 5.000000 -784354.375000 0.000000 1.000000 
6508.680625 -1513.670101 21.499878 6418950.000000 7.000000 1.000000 -784543.375000 0.000000 1.000000 
6951.289023 -185.175396 43.162354 5199339.000000 7.000000 2.000000 -784604.500000 0.000000 1.000000 
6563.670859 -81.333354 -878.110413 8223763.000000 7.000000 6.000000 -784419.500000 0.000000 1.000000 
7019.534141 -351.485332 -217.389526 5200530.000000 7.000000 7.000000 -784604.312500 0.000000 1.000000 
6955.558555 -353.050884 -462.345215 4898061.000000 7.000000 2.000000 -784618.375000 0.000000 1.000000 
6849.347617 -244.837139 36.827026 3387225.000000 6.000000 5.000000 -784705.937500 0.000000 0.000000 
6850.701133 -273.125103 -760.034485 8828631.000000 7.000000 7.000000 -784354.437500 0.000000 1.000000 
6669.764609 -270.268657 -652.088287 7922412.000000 7.000000 2.000000 -784448.437500 0.000000 1.000000 
5945.030234 -701.699626 -12.156250 4899182.000000 6.000000 3.000000 -784618.187500 0.000000 1.000000 
6028.458945 -1184.987804 -16.134399 7930040.000000 7.000000 5.000000 -784447.250000 0.000000 1.000000 
6865.790977 -1470.694805 -654.533508 2206045.000000 7.000000 7.000000 -784782.875000 0.000000 0.000000 
6439.652305 -350.301738 -145.459778 4897291.000000 7.000000 7.000000 -784618.562500 0.000000 1.000000 
5906.032187 -113.027324 -846.854309 6105986.000000 4.000000 3.000000 -784562.562500 0.000000 1.000000 
6149.513633 -1550.558597 3.468140 6419861.000000 6.000000 1.000000 -784543.187500 0.000000 1.000000 
6830.773398 -1389.971202 -18.758179 9432700.000000 6.000000 1.000000 -784271.187500 0.000000 2.000000 
6878.571250 -1472.097393 -327.348206 2206090.000000 7.000000 3.000000 -784782.875000 0.000000 0.000000 
6613.398398 -1474.086895 25.005981 4300400.000000 7.000000 6.000000 -784648.687500 0.000000 1.000000 
5822.450156 -1164.111095 -970.009506 9733495.000000 2.000000 2.000000 -784229.062500 0.000000 2.000000 
6007.160117 -359.401348 -16.332153 2791253.000000 2.000000 2.000000 -784745.375000 0.000000 0.000000 
6443.097617 -351.741558 -39.801514 3386858.000000 7.000000 4.000000 -784706.000000 0.000000 0.000000 
6004.115195 -848.816204 -9.757080 8230270.000000 7.000000 7.000000 -784418.812500 0.000000 1.000000 
7105.597617 -351.964092 -219.665527 3190346.000000 7.000000 3.000000 -784719.250000 0.000000 0.000000 
6882.087852 -1470.711605 -331.273499 2206090.000000 7.000000 7.000000 -784782.875000 0.000000 0.000000 
6882.866172 -1470.404903 -332.142212 2206090.000000 7.000000 7.000000 -784782.875000 0.000000 0.000000 
6877.279258 -1472.684200 -665.770294 2206091.000000 7.000000 1.000000 -784782.875000 0.000000 0.000000 
6360.670859 -273.612773 13.038940 7923110.000000 7.000000 4.000000 -784448.375000 0.000000 1.000000 
5821.536094 -1217.626506 -958.962402 3994576.000000 2.000000 1.000000 -784666.937500 0.000000 1.000000 
6533.343711 -351.812847 -208.732178 3189105.000000 7.000000 3.000000 -784719.500000 0.000000 0.000000 
7151.802695 -270.365947 -290.775330 10324220.000000 7.000000 3.000000 -784141.875000 0.000000 2.000000 
5881.622031 -93.863750 -847.894104 5802886.000000 4.000000 3.000000 -784577.312500 0.000000 1.000000 
6198.036094 -1390.354106 -59.749023 6721211.000000 7.000000 2.000000 -784527.687500 0.000000 1.000000 
6246.737266 -1392.975200 -31.878906 6418531.000000 7.000000 7.000000 -784543.437500 0.000000 1.000000 
6000.734336 -319.243755 -14.810913 7924301.000000 7.000000 3.000000 -784448.312500 0.000000 1.000000 
6641.321250 -351.771953 -138.387390 2793230.000000 7.000000 3.000000 -784745.125000 0.000000 0.000000 
7282.623984 -207.490825 60.408081 8827157.000000 7.000000 1.000000 -784354.500000 0.000000 1.000000 
6074.217734 -1190.320812 -15.320068 7022631.000000 7.000000 2.000000 -784510.187500 0.000000 1.000000 
6893.802695 -1472.651607 -341.938904 2206136.000000 7.000000 1.000000 -784782.875000 0.000000 0.000000 
6728.973594 -1413.608303 31.390015 7022699.000000 7.000000 4.000000 -784510.187500 0.000000 1.000000 
6226.570273 -334.787212 5.063599 3782089.000000 6.000000 6.000000 -784680.562500 0.000000 0.000000 
6175.164023 -261.502422 -838.766388 6712815.000000 5.000000 2.000000 -784529.437500 0.000000 1.000000 
6030.616172 -271.972515 -299.603271 8831081.000000 7.000000 7.000000 -784354.312500 0.000000 1.000000 
6044.524375 -881.914226 -7.859741 7323071.000000 6.000000 2.000000 -784492.312500 0.000000 1.000000 
6816.967734 -350.215557 -377.378784 4897851.000000 7.000000 7.000000 -784618.437500 0.000000 1.000000 
5799.672812 -1244.643901 -16.600342 8837589.000000 7.000000 2.000000 -784353.312500 0.000000 1.000000 
6002.337852 -806.194683 -706.568695 8834372.000000 2.000000 2.000000 -784353.875000 0.000000 1.000000 
7124.295859 -1391.576702 -60.222290 10030149.000000 7.000000 5.000000 -784185.312500 0.000000 2.000000 
6899.535117 -1470.402401 -348.333374 2206136.000000 7.000000 7.000000 -784782.875000 0.000000 0.000000 
6002.794883 -848.138713 -8.875244 8230270.000000 7.000000 5.000000 -784418.812500 0.000000 1.000000 
6894.686484 -1472.382701 -684.126404 2206137.000000 7.000000 2.000000 -784782.875000 0.000000 0.000000 
5839.821250 -761.110088 -847.345093 14521208.000000 7.000000 5.000000 -783602.125000 0.000000 2.000000 
6767.425742 -1390.003307 -51.806152 7324749.000000 7.000000 1.000000 -784492.000000 0.000000 1.000000 
6463.147422 -1472.169200 -587.578796 2996966.000000 7.000000 3.000000 -784731.625000 0.000000 0.000000 
6593.687461 -1392.954204 -244.562317 6417971.000000 7.000000 7.000000 -784543.562500 0.000000 1.000000 
6510.445273 -271.625835 -551.749084 7922762.000000 7.000000 6.000000 -784448.375000 0.000000 1.000000 
6846.999961 -149.108989 -844.371490 7014023.000000 6.000000 2.000000 -784511.875000 0.000000 1.000000 
7270.122031 -269.412334 -84.793701 12120977.000000 7.000000 2.000000 -783884.312500 0.000000 2.000000 
6855.716758 -1610.253501 -845.886993 4301593.000000 6.000000 4.000000 -784648.562500 0.000000 1.000000 
6211.748984 -1510.164608 5.272949 3997511.000000 6.000000 4.000000 -784666.562500 0.000000 1.000000 
6835.049766 -1502.076900 36.440552 2206181.000000 1.000000 1.000000 -784782.875000 0.000000 0.000000 
6147.477500 -1555.307697 -842.940002 3590043.000000 4.000000 3.000000 -784692.187500 0.000000 0.000000 
6355.675742 -272.056865 -215.375977 7923111.000000 7.000000 7.000000 -784448.375000 0.000000 1.000000 
5898.516562 -915.356792 -9.008057 7626241.000000 7.000000 4.000000 -784471.000000 0.000000 1.000000 
6592.434531 -350.624248 -18.743042 2991213.000000 7.000000 6.000000 -784732.500000 0.000000 0.000000 
6399.188437 -1481.904903 -839.024994 3194674.000000 1.000000 1.000000 -784718.562500 0.000000 0.000000 
6800.055625 -266.593730 32.941772 11223018.000000 7.000000 7.000000 -784006.125000 0.000000 2.000000 
5995.965781 -146.844463 -843.770599 7620435.000000 5.000000 1.000000 -784471.812500 0.000000 1.000000 
6011.275352 -1144.131023 -14.441528 4902752.000000 6.000000 2.000000 -784617.625000 0.000000 1.000000 
6600.222617 -1471.693492 -742.923309 2799397.000000 7.000000 5.000000 -784744.250000 0.000000 0.000000 
6505.047812 -258.460308 19.040161 12421417.000000 7.000000 7.000000 -783829.125000 0.000000 2.000000 
6008.664023 -302.366924 -15.847900 7924161.000000 7.000000 7.000000 -784448.312500 0.000000 1.000000 
7123.501914 -1396.229198 50.832642 2206226.000000 1.000000 1.000000 -784782.875000 0.000000 0.000000 
7266.764609 -1389.921703 -29.995850 8229707.000000 7.000000 1.000000 -784418.937500 0.000000 1.000000 
6101.987266 -695.090007 -12.250977 10328420.000000 3.000000 3.000000 -784141.625000 0.000000 2.000000 
6278.749961 -270.939922 -798.733612 9428435.000000 7.000000 3.000000 -784271.625000 0.000000 2.000000 
5876.117148 -1160.188213 -16.638184 9135692.000000 7.000000 7.000000 -784314.125000 0.000000 2.000000 
6085.182578 -1472.724697 -374.395325 3997023.000000 7.000000 2.000000 -784666.562500 0.000000 1.000000 
5856.710898 -1038.706279 -844.667603 11826771.000000 7.000000 1.000000 -783922.187500 0.000000 2.000000 
6541.334922 -1500.953395 -840.110596 4905764.000000 6.000000 4.000000 -784616.937500 0.000000 1.000000 
6001.558555 -1287.049388 -593.810791 2796822.000000 4.000000 2.000000 -784744.562500 0.000000 0.000000 
6258.775352 -269.565410 -739.736908 13020899.000000 7.000000 3.000000 -783756.500000 0.000000 2.000000 
6117.064414 -272.552959 -347.681885 8830801.000000 7.000000 7.000000 -784354.312500 0.000000 1.000000 
6836.693320 -271.503032 -637.247498 7317332.000000 7.000000 6.000000 -784493.187500 0.000000 1.000000 
5891.184531 -1066.902874 -12.483398 8232020.000000 7.000000 3.000000 -784418.500000 0.000000 1.000000 
7125.653281 -1402.318309 50.939575 2206272.000000 1.000000 1.000000 -784782.875000 0.000000 0.000000 
6839.587852 -228.084087 38.031860 3387133.000000 6.000000 1.000000 -784705.937500 0.000000 0.000000 
6345.336875 -272.946758 -439.741211 9129254.000000 7.000000 7.000000 -784314.937500 0.000000 2.000000 
7108.580039 -1392.661205 -304.069702 8532038.000000 7.000000 7.000000 -784387.750000 0.000000 1.000000 
6002.363242 -449.461650 -511.115906 7925213.000000 3.000000 3.000000 -784448.187500 0.000000 1.000000 
6983.873984 -350.812969 -154.160278 5805400.000000 4.000000 4.000000 -784576.375000 0.000000 1.000000 
6800.097617 -1620.130401 -844.916595 3999123.000000 6.000000 1.000000 -784666.437500 0.000000 1.000000 
6947.703086 -1471.401607 -394.803894 2206274.000000 7.000000 6.000000 -784782.875000 0.000000 0.000000 
6388.755820 -272.194194 -373.972595 9428153.000000 7.000000 6.000000 -784271.625000 0.000000 2.000000 
6407.197227 -269.727031 -282.675903 10924260.000000 7.000000 1.000000 -784050.562500 0.000000 2.000000 
5890.840781 -1461.705104 37.712402 13624926.000000 4.000000 2.000000 -783687.687500 0.000000 2.000000 
5834.111289 -1156.040905 -14.754761 6720232.000000 7.000000 3.000000 -784527.875000 0.000000 1.000000 
6948.206992 -1494.758907 39.861450 12725076.000000 7.000000 7.000000 -783791.000000 0.000000 2.000000 
6098.623008 -271.535259 -282.119873 6410133.000000 3.000000 2.000000 -784545.000000 0.000000 1.000000 
6002.357383 -295.278789 -565.510193 8226633.000000 2.000000 2.000000 -784419.312500 0.000000 1.000000 
5821.836875 -813.484905 -9.960571 7020392.000000 5.000000 4.000000 -784510.750000 0.000000 1.000000 
7188.148398 -1560.809703 30.147339 3788712.000000 7.000000 7.000000 -784679.500000 0.000000 0.000000 
6963.677695 -1471.860103 -410.186279 2206320.000000 7.000000 4.000000 -784782.875000 0.000000 0.000000 
5961.583945 -886.233196 -9.431152 6415102.000000 6.000000 6.000000 -784544.000000 0.000000 1.000000 
7009.001914 -1391.616985 -82.462036 7928428.000000 7.000000 5.000000 -784447.625000 0.000000 1.000000 
5843.556602 -1204.254985 -15.910645 9136042.000000 7.000000 3.000000 -784314.062500 0.000000 2.000000 
6234.098594 -268.443218 6.594971 10325970.000000 7.000000 4.000000 -784141.812500 0.000000 2.000000 
5991.819297 -638.755901 -12.739136 5201582.000000 6.000000 1.000000 -784604.125000 0.000000 1.000000 
6425.539023 -271.487407 -421.988770 8527631.000000 7.000000 5.000000 -784388.187500 0.000000 1.000000 
6967.521445 -1470.377803 -414.464722 2206320.000000 7.000000 7.000000 -784782.875000 0.000000 0.000000 
6014.383750 -1230.392101 -16.874634 3785862.000000 7.000000 4.000000 -784679.812500 0.000000 0.000000 
5969.989219 -1661.462500 -942.550095 4301106.000000 7.000000 7.000000 -784648.625000 0.000000 1.000000 
6088.331016 -270.890239 -50.225586 6410132.000000 3.000000 1.000000 -784545.000000 0.000000 1.000000 
6959.344687 -225.451519 42.581299 5199619.000000 7.000000 5.000000 -784604.437500 0.000000 1.000000 
5981.677695 -789.226726 -10.072876 13921936.000000 7.000000 5.000000 -783655.937500 0.000000 2.000000 
6645.582969 -286.231426 25.987671 5502230.000000 7.000000 7.000000 -784590.937500 0.000000 1.000000 
6359.181602 -1401.811901 12.441040 9733070.000000 7.000000 5.000000 -784229.125000 0.000000 2.000000 
6254.581992 -81.573589 -877.134796 11223022.000000 7.000000 5.000000 -784006.125000 0.000000 2.000000 
6802.583945 -195.599346 34.746948 4594399.000000 7.000000 5.000000 -784633.437500 0.000000 1.000000 
5857.219687 -715.349590 -847.576294 8834373.000000 6.000000 6.000000 -784353.875000 0.000000 1.000000 
6157.400352 -1471.064403 -667.073608 2996369.000000 7.000000 7.000000 -784731.687500 0.000000 0.000000 
6983.977500 -1470.704296 -430.372803 2206366.000000 7.000000 7.000000 -784782.875000 0.000000 0.000000 
5902.052695 -924.004802 -843.083008 10030994.000000 7.000000 2.000000 -784185.187500 0.000000 2.000000 
5841.586875 -761.637371 -847.884491 14521208.000000 7.000000 6.000000 -783602.125000 0.000000 2.000000 
6969.846641 -351.930278 -138.732605 3190070.000000 7.000000 3.000000 -784719.312500 0.000000 0.000000 
7117.081992 -1391.610912 -134.208313 7928148.000000 7.000000 5.000000 -784447.687500 0.000000 1.000000 
6194.097617 -80.752544 -847.610992 5803025.000000 4.000000 2.000000 -784577.250000 0.000000 1.000000 
6997.696250 -1472.125103 -443.229980 2206412.000000 7.000000 3.000000 -784782.875000 0.000000 0.000000 
6818.588828 -351.575542 -49.021118 3189748.000000 7.000000 5.000000 -784719.375000 0.000000 0.000000 
6108.828086 -272.739116 -70.694458 10027071.000000 7.000000 7.000000 -784185.625000 0.000000 2.000000 
7041.050742 -1404.952404 47.029541 3195222.000000 4.000000 2.000000 -784718.562500 0.000000 0.000000 
6339.661094 -79.203838 -954.138702 12720460.000000 7.000000 1.000000 -783791.437500 0.000000 2.000000 
6673.337852 -1471.003307 -354.298096 3195040.000000 7.000000 7.000000 -784718.562500 0.000000 0.000000 
6218.946250 -270.019023 -699.020996 8225863.000000 7.000000 1.000000 -784419.375000 0.000000 1.000000 
6174.002891 -180.929546 -20.741333 8527770.000000 7.000000 3.000000 -784388.187500 0.000000 1.000000 
5995.791953 -950.955608 -10.348755 9134152.000000 7.000000 5.000000 -784314.375000 0.000000 2.000000 
7229.689414 -1453.753200 56.061646 6719738.000000 7.000000 5.000000 -784528.000000 0.000000 1.000000 
6495.762656 -270.322368 -429.388306 11223510.000000 7.000000 3.000000 -784006.125000 0.000000 2.000000 
5853.960898 -1070.216899 -848.486786 11826911.000000 7.000000 7.000000 -783922.187500 0.000000 2.000000 
7159.958945 -337.442485 51.545044 4293678.000000 7.000000 7.000000 -784649.937500 0.000000 1.000000 
5853.460898 -82.822490 -912.265503 13020620.000000 7.000000 7.000000 -783756.500000 0.000000 2.000000 
6718.328086 -351.139873 -97.947876 2991535.000000 7.000000 5.000000 -784732.437500 0.000000 0.000000 
5846.846641 -765.155010 -9.551392 3783332.000000 6.000000 1.000000 -784680.250000 0.000000 0.000000 
6053.563437 -1470.621807 -353.110291 3996953.000000 7.000000 7.000000 -784666.625000 0.000000 1.000000 
7017.208945 -1471.380001 -462.518982 2206458.000000 7.000000 7.000000 -784782.875000 0.000000 0.000000 
6670.315391 -1460.367702 28.511597 5510700.000000 7.000000 4.000000 -784587.812500 0.000000 1.000000 
5945.020469 -412.853618 -841.456085 9729155.000000 7.000000 4.000000 -784229.687500 0.000000 2.000000 
6474.962852 -1392.457500 12.203857 12126507.000000 7.000000 6.000000 -783883.875000 0.000000 2.000000 
6077.159141 -970.914714 -9.537964 10928179.000000 7.000000 3.000000 -784050.187500 0.000000 2.000000 
5982.031211 -80.402690 -958.681000 8830034.000000 7.000000 2.000000 -784354.375000 0.000000 1.000000 
6250.296836 -1470.572307 -752.503510 2996553.000000 7.000000 7.000000 -784731.687500 0.000000 0.000000 
6037.143516 -270.334453 -397.077698 11523670.000000 7.000000 3.000000 -783962.062500 0.000000 2.000000 
7035.821250 -214.826396 46.744751 5804489.000000 7.000000 4.000000 -784576.687500 0.000000 1.000000 
5836.225547 -1549.932003 -847.636200 4300056.000000 3.000000 2.000000 -784648.687500 0.000000 1.000000 
5917.665977 -273.321147 39.946289 13920116.000000 7.000000 6.000000 -783656.062500 0.000000 2.000000 
6719.699180 -271.505840 -517.865295 7015002.000000 7.000000 6.000000 -784511.812500 0.000000 1.000000 
6027.146445 -321.393901 -15.129517 3583738.000000 6.000000 3.000000 -784693.375000 0.000000 0.000000 
7034.844687 -1471.404201 -479.712402 2206504.000000 7.000000 7.000000 -784782.875000 0.000000 0.000000 
5990.647422 -559.072856 -838.095886 10627183.000000 7.000000 2.000000 -784096.437500 0.000000 2.000000 
6469.844687 -351.020244 20.605347 12421837.000000 4.000000 1.000000 -783829.125000 0.000000 2.000000 
6382.372031 -1390.302288 -75.068237 11527938.000000 7.000000 3.000000 -783961.625000 0.000000 2.000000 
6795.123008 -258.924663 34.371948 3782778.000000 7.000000 5.000000 -784680.375000 0.000000 0.000000 
5907.966758 -239.565776 -843.476288 8528964.000000 6.000000 3.000000 -784388.062500 0.000000 1.000000 
6677.466758 -1472.204204 -456.957397 4603012.000000 7.000000 5.000000 -784631.750000 0.000000 1.000000 
5986.125937 -443.735332 -17.320801 6714422.000000 6.000000 2.000000 -784529.125000 0.000000 1.000000 
5964.378867 -1147.694072 -14.340454 12725217.000000 7.000000 4.000000 -783790.937500 0.000000 2.000000 
6771.638633 -1390.855388 -353.583679 6417691.000000 7.000000 5.000000 -784543.562500 0.000000 1.000000 
7206.697227 -350.235942 -179.568298 2794701.000000 7.000000 7.000000 -784744.875000 0.000000 0.000000 
6405.786094 -180.729351 -8.902954 10923839.000000 7.000000 4.000000 -784050.562500 0.000000 2.000000 
6861.835898 -1562.591602 32.275757 2206687.000000 7.000000 1.000000 -784782.875000 0.000000 0.000000 
6002.156211 -1414.318904 -15.019043 4602032.000000 6.000000 2.000000 -784631.875000 0.000000 1.000000 
