ply
format ascii 1.0
comment Created by CloudCompare v2.12 alpha
comment Created 6/8/2021 9:16 PM
obj_info Generated by CloudCompare!
element vertex 496
property double x
property double y
property double z
property float scalar_fullwaveIndex
property float scalar_NumberOfReturns
property float scalar_ReturnNumber
property float scalar_GpsTime
property float scalar_Intensity
end_header
-6630.930795 -270.998516 -719.700104 6022511.000000 5.000000 2.000000 -1047484.812500 0.000000 
-5798.146157 -930.049724 -701.363312 5418061.000000 1.000000 1.000000 -1047581.312500 0.000000 
-5797.923135 -484.802593 -786.051514 8396140.000000 4.000000 3.000000 -1047126.437500 0.000000 
-5899.763955 -607.851055 -998.149307 10170432.000000 7.000000 6.000000 -1046926.187500 0.000000 
-6856.506600 -271.580181 -69.479858 9592992.000000 1.000000 1.000000 -1046984.750000 2.000000 
-5644.182046 -571.870220 -998.691803 10167072.000000 7.000000 3.000000 -1046926.625000 0.000000 
-6148.331094 -270.611553 -742.996094 2687011.000000 4.000000 1.000000 -1047826.875000 0.000000 
-6241.452615 -271.514873 -804.467896 5124903.000000 5.000000 3.000000 -1047629.062500 0.000000 
-6626.134988 -293.739727 35.683105 4452399.000000 7.000000 6.000000 -1047706.625000 0.000000 
-6186.264199 -271.564434 -225.238098 9584383.000000 1.000000 1.000000 -1046985.312500 4.000000 
-5618.234658 -245.505352 -906.246902 2687012.000000 1.000000 1.000000 -1047826.875000 0.000000 
-6564.179482 -1390.870586 -222.888977 4252483.000000 7.000000 3.000000 -1047726.250000 0.000000 
-5648.401284 -1048.044109 -12.754883 4447984.000000 7.000000 5.000000 -1047707.187500 0.000000 
-6636.013711 -272.175029 -742.412415 4452493.000000 7.000000 7.000000 -1047706.625000 0.000000 
-5982.861367 -270.450664 -625.927490 5124062.000000 5.000000 1.000000 -1047629.062500 0.000000 
-6044.855386 -270.430645 -281.614075 5124270.000000 5.000000 1.000000 -1047629.062500 0.000000 
-5897.582925 -846.350505 -9.186279 4644956.000000 5.000000 5.000000 -1047686.937500 0.000000 
-6015.572549 -271.000103 -420.524475 5721509.000000 5.000000 2.000000 -1047533.312500 0.000000 
-7007.815698 -319.726665 55.098511 4060708.000000 7.000000 5.000000 -1047743.375000 0.000000 
-5721.411538 -81.549541 -857.890289 9283530.000000 1.000000 1.000000 -1047018.937500 5.000000 
-6316.652017 -271.530498 -574.983887 9586137.000000 1.000000 1.000000 -1046985.187500 4.000000 
-5840.654946 -472.242290 -998.511307 10760112.000000 7.000000 4.000000 -1046876.562500 0.000000 
-6695.217111 -271.559673 -54.616211 10181481.000000 1.000000 1.000000 -1046925.625000 4.000000 
-5797.588174 -1025.940593 -224.882996 8986025.000000 5.000000 2.000000 -1047054.500000 0.000000 
-6433.768411 -271.931743 -94.620239 6021737.000000 5.000000 4.000000 -1047484.812500 0.000000 
-6305.032388 -270.727153 -616.268616 3668146.000000 7.000000 5.000000 -1047773.312500 0.000000 
-6635.190896 -271.500713 -328.552612 10180644.000000 1.000000 1.000000 -1046925.625000 4.000000 
-5862.268350 -271.564678 -60.407959 9579901.000000 1.000000 1.000000 -1046985.687500 4.000000 
-6360.995583 -181.635234 13.317139 7512524.000000 1.000000 1.000000 -1047251.562500 0.000000 
-6640.172402 -272.631694 -161.529297 4844228.000000 7.000000 7.000000 -1047664.250000 0.000000 
-6221.142495 -81.596782 -907.143997 8699311.000000 1.000000 1.000000 -1047089.250000 2.000000 
-5816.832437 -846.276775 -168.339478 6313497.000000 7.000000 3.000000 -1047438.562500 0.000000 
-5898.595132 -271.537944 -238.002075 10465053.000000 1.000000 1.000000 -1046900.500000 4.000000 
-5840.134927 -1391.469707 -101.715454 6310487.000000 2.000000 1.000000 -1047439.062500 0.000000 
-6391.629495 -271.559917 -551.368408 9291717.000000 1.000000 1.000000 -1047018.375000 3.000000 
-5787.915322 -1433.163997 -14.225464 5033932.000000 7.000000 2.000000 -1047641.062500 0.000000 
-6157.142922 -271.503643 -622.124207 6318960.000000 4.000000 3.000000 -1047438.062500 0.000000 
-5797.960854 -1447.874202 -269.116577 9281216.000000 6.000000 3.000000 -1047019.312500 0.000000 
-6313.195718 -271.058208 -743.409698 4843678.000000 7.000000 3.000000 -1047664.312500 0.000000 
-6042.394448 -329.081279 -998.952393 8991562.000000 7.000000 2.000000 -1047053.812500 0.000000 
-5797.900918 -629.995830 -415.721619 6910458.000000 1.000000 1.000000 -1047343.125000 0.000000 
-5860.411172 -259.223857 -998.691696 8694062.000000 7.000000 3.000000 -1047089.562500 0.000000 
-6592.634591 -270.963359 -532.063782 5723680.000000 5.000000 2.000000 -1047533.250000 0.000000 
-6377.847573 -238.943340 24.944336 2687147.000000 7.000000 2.000000 -1047826.812500 0.000000 
-5798.160684 -568.668560 -580.813171 7208379.000000 2.000000 2.000000 -1047295.562500 0.000000 
-6460.142007 -80.361309 -890.683197 4648868.000000 7.000000 2.000000 -1047686.500000 0.000000 
-5798.675820 -773.619792 -695.987091 9282619.000000 5.000000 5.000000 -1047019.062500 0.000000 
-5797.625894 -315.057476 -509.651001 8397117.000000 3.000000 1.000000 -1047126.312500 0.000000 
-6171.879983 -271.886943 -182.149109 6319027.000000 3.000000 3.000000 -1047438.062500 0.000000 
-5653.442910 -672.717388 -108.419800 8097304.000000 7.000000 2.000000 -1047166.375000 0.000000 
-5555.285439 -790.702800 -107.294678 9575213.000000 7.000000 7.000000 -1046986.437500 0.000000 
-6384.096902 -270.190654 -599.363220 4452171.000000 7.000000 2.000000 -1047706.625000 0.000000 
-5797.553140 -1167.273204 -449.725525 7799248.000000 3.000000 1.000000 -1047209.437500 0.000000 
-6063.380166 -271.530498 -761.329102 10467369.000000 1.000000 1.000000 -1046900.375000 5.000000 
-5641.820840 -753.684978 -107.700439 5716817.000000 7.000000 6.000000 -1047533.750000 0.000000 
-5742.616006 -626.434917 -997.607407 9873072.000000 7.000000 7.000000 -1046954.687500 0.000000 
-6051.067178 -80.975078 -985.953995 5125464.000000 5.000000 2.000000 -1047629.062500 0.000000 
-5810.180215 -1409.398998 -16.143066 5034070.000000 7.000000 6.000000 -1047641.062500 0.000000 
-5716.464883 -155.751201 -998.511307 8397192.000000 7.000000 4.000000 -1047126.312500 0.000000 
-6727.476602 -270.555645 -421.358093 6321479.000000 5.000000 1.000000 -1047438.000000 0.000000 
-6590.386788 -271.531963 -504.558228 10180016.000000 1.000000 1.000000 -1046925.687500 5.000000 
-5798.258340 -634.124858 -687.646790 8691469.000000 5.000000 4.000000 -1047089.875000 0.000000 
-5618.732705 -1423.194606 -945.982803 8093462.000000 5.000000 5.000000 -1047167.125000 0.000000 
-6176.281777 -81.943706 -901.546494 6021952.000000 5.000000 4.000000 -1047484.812500 0.000000 
-6097.366372 -270.611919 -295.814270 6020338.000000 5.000000 1.000000 -1047484.875000 0.000000 
-5797.301064 -616.117290 -788.854706 8691540.000000 5.000000 1.000000 -1047089.812500 0.000000 
-5578.435342 -797.210186 -108.538452 6610296.000000 7.000000 3.000000 -1047391.000000 0.000000 
-5797.215005 -1058.767803 -419.345215 8689717.000000 5.000000 1.000000 -1047090.187500 0.000000 
-5943.355996 -567.098247 -998.330597 9580402.000000 7.000000 5.000000 -1046985.625000 0.000000 
-5948.363809 -271.540752 -128.157593 10760802.000000 1.000000 1.000000 -1046876.500000 4.000000 
-6349.619119 -223.174907 -842.699707 2687195.000000 7.000000 7.000000 -1047826.812500 0.000000 
-5798.729775 -1394.499004 -403.123901 9577527.000000 7.000000 6.000000 -1046985.937500 0.000000 
-5617.583901 -1001.944316 -973.310898 8688042.000000 5.000000 2.000000 -1047090.500000 0.000000 
-5764.401284 -367.173320 -54.813354 7506714.000000 4.000000 3.000000 -1047251.875000 0.000000 
-6145.204324 -81.517559 -929.970795 9289481.000000 1.000000 1.000000 -1047018.500000 5.000000 
-6753.675515 -271.608257 -566.756775 8703438.000000 1.000000 1.000000 -1047089.125000 1.000000 
-6381.996072 -210.577861 23.772827 2687239.000000 7.000000 5.000000 -1047826.812500 0.000000 
-5904.907144 -564.017192 -998.691895 9579912.000000 7.000000 3.000000 -1046985.687500 0.000000 
-5797.236611 -1045.302593 -453.370605 9281987.000000 6.000000 1.000000 -1047019.187500 0.000000 
-6915.070306 -271.560161 -62.316650 9593692.000000 1.000000 1.000000 -1046984.687500 2.000000 
-6346.219216 -208.817119 -840.673615 2687241.000000 7.000000 2.000000 -1047826.812500 0.000000 
-6338.169106 -271.521099 -250.277100 10471283.000000 1.000000 1.000000 -1046900.125000 5.000000 
-5797.896035 -1380.070598 -480.885376 5117062.000000 2.000000 1.000000 -1047629.937500 0.000000 
-5709.199502 -464.295757 -998.149704 8986872.000000 7.000000 6.000000 -1047054.312500 0.000000 
-6449.052285 -271.521099 -64.589966 10767731.000000 1.000000 1.000000 -1046875.812500 4.000000 
-6284.007302 -271.499492 -674.390594 9880768.000000 1.000000 1.000000 -1046954.062500 5.000000 
-5618.669351 -1216.983013 -946.971695 7797502.000000 5.000000 5.000000 -1047209.812500 0.000000 
-5797.526528 -1430.544094 -660.275391 7500770.000000 4.000000 2.000000 -1047252.812500 0.000000 
-5617.263345 -954.967021 -881.261414 9280101.000000 7.000000 2.000000 -1047019.562500 0.000000 
-5797.890786 -1301.797802 -561.776428 6012640.000000 2.000000 1.000000 -1047486.000000 0.000000 
-5797.562783 -966.603191 -230.639526 7800296.000000 3.000000 1.000000 -1047209.187500 0.000000 
-6828.054391 -1391.433391 -79.618652 5036461.000000 7.000000 4.000000 -1047640.500000 0.000000 
-6383.652017 -196.372905 23.346191 2687285.000000 7.000000 6.000000 -1047826.812500 0.000000 
-5830.424844 -271.529277 -596.080322 9874327.000000 1.000000 1.000000 -1046954.500000 5.000000 
-5933.267739 -81.511943 -935.438904 3472509.000000 7.000000 7.000000 -1047785.375000 0.000000 
-5585.612100 -1173.381115 -14.246094 4447386.000000 7.000000 1.000000 -1047707.250000 0.000000 
-6327.072915 -247.836040 -7.405029 5424147.000000 7.000000 7.000000 -1047580.750000 0.000000 
-5526.647256 -1026.962810 -107.814819 8686984.000000 7.000000 5.000000 -1047090.750000 0.000000 
-6503.062600 -1191.508312 -973.419998 10769492.000000 1.000000 1.000000 -1046875.750000 3.000000 
-5797.948647 -371.689556 -335.566711 8692725.000000 4.000000 3.000000 -1047089.687500 0.000000 
-6620.338510 -271.469951 -313.400696 7513577.000000 2.000000 1.000000 -1047251.500000 0.000000 
-6235.789529 -271.522808 -595.836792 10174977.000000 1.000000 1.000000 -1046925.937500 5.000000 
-6069.268350 -184.136089 -997.607101 8696932.000000 7.000000 7.000000 -1047089.375000 0.000000 
-5900.488198 -594.921733 -998.692001 10170432.000000 7.000000 3.000000 -1046926.187500 0.000000 
-6203.440103 -185.001445 -9.934326 10174550.000000 1.000000 1.000000 -1046926.000000 0.000000 
-6337.754617 -1191.519603 -972.222000 9879722.000000 1.000000 1.000000 -1046954.187500 3.000000 
-6621.524301 -402.470439 -998.149597 9589502.000000 7.000000 6.000000 -1046984.937500 0.000000 
-6177.381204 -81.614849 -908.642197 8698821.000000 1.000000 1.000000 -1047089.250000 2.000000 
-6466.728188 -270.560649 -90.015381 6021877.000000 5.000000 1.000000 -1047484.812500 0.000000 
-6405.098489 -198.193218 -0.892090 10177490.000000 2.000000 1.000000 -1046925.812500 0.000000 
-5797.936196 -1305.847393 -717.232605 8392290.000000 5.000000 3.000000 -1047127.062500 0.000000 
-6649.147714 -271.568218 -627.517212 9294798.000000 1.000000 1.000000 -1047018.187500 3.000000 
-5797.526284 -1395.430614 -571.184998 8095139.000000 5.000000 2.000000 -1047166.812500 0.000000 
-6215.982400 -271.562480 -167.389221 8401734.000000 1.000000 1.000000 -1047126.062500 1.000000 
-5798.303750 -687.885112 -414.893372 9282826.000000 5.000000 4.000000 -1047019.000000 0.000000 
-5538.792642 -1118.511882 -107.190674 7797285.000000 7.000000 7.000000 -1047209.875000 0.000000 
-5832.600747 -271.507793 -331.474915 9579484.000000 1.000000 1.000000 -1046985.687500 4.000000 
-6220.249185 -80.395854 -984.376007 4256810.000000 7.000000 3.000000 -1047725.750000 0.000000 
-6672.989999 -222.098491 -933.096603 10770891.000000 7.000000 5.000000 -1046875.625000 0.000000 
-6689.738900 -1392.676586 -137.671509 4644495.000000 7.000000 7.000000 -1047687.000000 0.000000 
-6354.373086 -166.462627 -843.871613 2687379.000000 7.000000 4.000000 -1047826.750000 0.000000 
-5752.748452 -822.400188 -7.827759 3665615.000000 7.000000 1.000000 -1047773.687500 0.000000 
-6356.248208 -166.528789 -844.812714 2687379.000000 7.000000 6.000000 -1047826.750000 0.000000 
-6092.702188 -271.493633 -245.331726 10467783.000000 1.000000 1.000000 -1046900.312500 4.000000 
-6328.719583 -271.501079 -509.874878 10176306.000000 1.000000 1.000000 -1046925.875000 5.000000 
-5731.250649 -1005.436626 -107.554199 7799525.000000 7.000000 6.000000 -1047209.375000 0.000000 
-6321.598306 -271.533916 -123.486206 9586202.000000 1.000000 1.000000 -1046985.187500 3.000000 
-6355.347878 -152.272808 -844.083191 2687425.000000 7.000000 3.000000 -1047826.750000 0.000000 
-6678.757302 -270.894146 -270.726624 4648452.000000 7.000000 4.000000 -1047686.562500 0.000000 
-6593.287209 -403.160259 -998.510895 9589152.000000 7.000000 4.000000 -1046984.937500 0.000000 
-5835.424355 -271.509868 -763.986206 9874399.000000 1.000000 1.000000 -1046954.500000 5.000000 
-5824.979897 -284.790874 -998.330505 8693502.000000 7.000000 5.000000 -1047089.562500 0.000000 
-5621.459634 -193.685894 -998.953400 8395862.000000 7.000000 2.000000 -1047126.437500 0.000000 
-6630.967111 -271.530498 -69.612915 10770321.000000 1.000000 1.000000 -1046875.687500 4.000000 
-5617.110146 -1597.724899 -909.049606 6903742.000000 4.000000 1.000000 -1047344.437500 0.000000 
-5660.595376 -1192.108196 -108.423096 9576194.000000 7.000000 2.000000 -1046986.187500 0.000000 
-7070.337001 -1392.665508 -120.290161 4057166.000000 7.000000 7.000000 -1047743.937500 0.000000 
-6532.392800 -271.540508 -405.525208 9884195.000000 1.000000 1.000000 -1046953.562500 4.000000 
-6600.409005 -271.491802 -590.174194 10180157.000000 1.000000 1.000000 -1046925.687500 5.000000 
-5798.130532 -591.805767 -790.490997 6612961.000000 1.000000 1.000000 -1047390.500000 0.000000 
-6487.147683 -271.679668 -751.197815 5039730.000000 7.000000 7.000000 -1047640.125000 0.000000 
-5763.161782 -1048.143474 -106.939087 6013897.000000 7.000000 7.000000 -1047485.812500 0.000000 
-5741.066812 -776.875225 -107.648438 9577523.000000 7.000000 6.000000 -1046985.937500 0.000000 
-5682.106362 -431.736919 -66.044922 6911015.000000 6.000000 4.000000 -1047343.062500 0.000000 
-5869.696328 -1156.246715 -14.718750 4839444.000000 7.000000 3.000000 -1047664.812500 0.000000 
-5798.357827 -1147.726177 -311.465271 8985676.000000 5.000000 4.000000 -1047054.562500 0.000000 
-6421.279824 -202.640239 -1.089478 6320636.000000 7.000000 3.000000 -1047438.000000 0.000000 
-6833.428109 -227.912456 18.832520 9001002.000000 6.000000 6.000000 -1047053.312500 0.000000 
-5659.676309 -1089.832622 -107.194214 8984344.000000 7.000000 7.000000 -1047054.812500 0.000000 
-5831.483193 -465.228984 -998.692398 10759972.000000 7.000000 3.000000 -1046876.562500 0.000000 
-5812.600747 -562.979106 -107.471191 6613236.000000 7.000000 7.000000 -1047390.500000 0.000000 
-6363.333413 -271.568340 -643.941498 9291368.000000 1.000000 1.000000 -1047018.375000 3.000000 
-5798.173745 -823.052715 -213.861328 7504056.000000 2.000000 2.000000 -1047252.250000 0.000000 
-5797.620645 -711.962810 -474.270691 8691117.000000 5.000000 2.000000 -1047089.875000 0.000000 
-6364.337808 -109.874248 -847.824493 2687563.000000 7.000000 6.000000 -1047826.750000 0.000000 
-6516.532021 -271.569805 -708.352203 8997369.000000 1.000000 1.000000 -1047053.500000 2.000000 
-6045.444131 -271.487041 -680.427490 10172248.000000 1.000000 1.000000 -1046926.062500 5.000000 
-6360.983315 -95.549053 -845.904999 2687609.000000 7.000000 1.000000 -1047826.750000 0.000000 
-5797.873452 -1079.548381 -699.752014 5118673.000000 2.000000 1.000000 -1047629.687500 0.000000 
-5726.272866 -770.962017 -108.677124 10168393.000000 7.000000 1.000000 -1046926.375000 0.000000 
-5836.643228 -81.504009 -863.782990 10169030.000000 1.000000 1.000000 -1046926.312500 6.000000 
-6186.704019 -271.515728 -250.661011 10174273.000000 1.000000 1.000000 -1046926.000000 5.000000 
-6366.285378 -95.697490 -848.565796 2687609.000000 7.000000 6.000000 -1047826.750000 0.000000 
-5903.380044 -271.533428 -70.224365 9875371.000000 1.000000 1.000000 -1046954.375000 4.000000 
-5618.141152 -194.399028 -983.222794 7803452.000000 2.000000 2.000000 -1047208.625000 0.000000 
-5797.950967 -476.247661 -547.729187 9283387.000000 5.000000 3.000000 -1047018.937500 0.000000 
-6748.436196 -272.794414 -306.852173 4648544.000000 7.000000 7.000000 -1047686.562500 0.000000 
-6250.329873 -81.875713 -924.097305 6618982.000000 4.000000 4.000000 -1047390.125000 0.000000 
-5848.335000 -271.540752 -324.960083 10464354.000000 1.000000 1.000000 -1046900.562500 4.000000 
-6087.601174 -718.311077 -990.810593 10763892.000000 7.000000 7.000000 -1046876.250000 0.000000 
-6840.625009 -272.237651 -178.450684 5040372.000000 7.000000 7.000000 -1047640.062500 0.000000 
-6370.017495 -81.563457 -850.212891 2687655.000000 7.000000 7.000000 -1047826.750000 0.000000 
-6033.453652 -273.134380 -787.476807 4451666.000000 7.000000 7.000000 -1047706.625000 0.000000 
-5789.713052 -315.097881 -13.801025 4255336.000000 7.000000 1.000000 -1047725.812500 0.000000 
-5822.609170 -1108.553997 -152.028809 8393335.000000 5.000000 2.000000 -1047126.875000 0.000000 
-5797.944863 -737.621379 -765.135803 8394810.000000 5.000000 3.000000 -1047126.625000 0.000000 
-6297.654519 -480.309062 -998.953094 9585162.000000 7.000000 2.000000 -1046985.250000 0.000000 
-5798.261758 -974.575786 -382.512329 8097097.000000 3.000000 3.000000 -1047166.375000 0.000000 
-5880.654336 -561.656108 -15.000610 4450284.000000 7.000000 2.000000 -1047706.812500 0.000000 
-5604.423989 -867.569377 -108.767090 8392214.000000 7.000000 1.000000 -1047127.125000 0.000000 
-6766.906686 -181.922832 18.204590 7217195.000000 5.000000 2.000000 -1047295.000000 0.000000 
-6848.776696 -1405.613506 45.935913 4252850.000000 7.000000 7.000000 -1047726.187500 0.000000 
-5797.204873 -667.760417 -235.014526 9578364.000000 7.000000 1.000000 -1046985.812500 0.000000 
-5727.657754 -520.846294 -108.695190 8691183.000000 6.000000 1.000000 -1047089.875000 0.000000 
-6584.045083 -270.342876 -445.271729 5125951.000000 5.000000 1.000000 -1047629.000000 0.000000 
-5951.245034 -375.384258 -998.511505 8990232.000000 7.000000 4.000000 -1047053.937500 0.000000 
-5587.360146 -1455.554500 -13.660767 2878968.000000 7.000000 2.000000 -1047819.187500 0.000000 
-5588.278115 -1455.752407 -14.088379 2878968.000000 7.000000 3.000000 -1047819.187500 0.000000 
-6993.015801 -272.444683 -117.510254 6621077.000000 5.000000 5.000000 -1047390.062500 0.000000 
-6069.542642 -271.085308 -628.721802 6318540.000000 3.000000 1.000000 -1047438.062500 0.000000 
-5591.034951 -1456.346599 -15.372559 2878968.000000 7.000000 6.000000 -1047819.187500 0.000000 
-6352.722329 -271.072368 -607.320374 6319870.000000 5.000000 2.000000 -1047438.000000 0.000000 
-6439.217080 -1392.975200 -12.731812 3664326.000000 7.000000 7.000000 -1047774.000000 0.000000 
-6957.257699 -243.593364 23.326538 10480170.000000 2.000000 2.000000 -1046899.500000 0.000000 
-5798.302651 -685.574199 -398.261414 8987146.000000 5.000000 4.000000 -1047054.312500 0.000000 
-6929.255395 -271.495830 -27.705688 6919206.000000 4.000000 3.000000 -1047342.500000 0.000000 
-6501.382485 -271.555156 -136.671692 9883772.000000 1.000000 1.000000 -1046953.625000 4.000000 
-5618.317422 -924.435283 -976.393707 8688322.000000 5.000000 4.000000 -1047090.437500 0.000000 
-5798.573647 -514.522319 -505.208130 8692027.000000 5.000000 5.000000 -1047089.750000 0.000000 
-6072.369546 -517.151958 -998.953400 10763192.000000 7.000000 2.000000 -1046876.312500 0.000000 
-5784.653604 -81.572490 -909.748993 8398451.000000 1.000000 1.000000 -1047126.187500 2.000000 
-6741.304391 -271.597759 -30.389771 8109414.000000 1.000000 1.000000 -1047165.375000 0.000000 
-5904.795938 -271.458354 -54.640137 6913605.000000 2.000000 1.000000 -1047342.750000 0.000000 
-5798.084878 -566.374736 -422.196106 6910878.000000 1.000000 1.000000 -1047343.062500 0.000000 
-6799.844186 -189.684429 18.714355 8407613.000000 6.000000 1.000000 -1047125.812500 0.000000 
-6678.979714 -1436.999401 38.207153 4056522.000000 7.000000 6.000000 -1047744.187500 0.000000 
-6023.460366 -271.680278 -587.519897 7212019.000000 1.000000 1.000000 -1047295.187500 0.000000 
-5686.425454 -508.551738 -107.552490 7207955.000000 7.000000 6.000000 -1047295.625000 0.000000 
-5587.489053 -1232.431896 -107.701172 6011937.000000 7.000000 6.000000 -1047486.125000 0.000000 
-5734.491616 -903.004924 -10.312256 3665293.000000 7.000000 7.000000 -1047773.750000 0.000000 
-6243.896523 -81.518291 -935.155594 9585861.000000 1.000000 1.000000 -1046985.187500 5.000000 
-5731.814858 -626.415386 -997.607193 9872932.000000 7.000000 7.000000 -1046954.687500 0.000000 
-5618.211953 -1222.866802 -921.474792 6905702.000000 3.000000 3.000000 -1047344.062500 0.000000 
-6732.529489 -271.064189 -456.279785 6619959.000000 5.000000 2.000000 -1047390.125000 0.000000 
-5539.451943 -896.883098 -107.785767 7501535.000000 7.000000 5.000000 -1047252.687500 0.000000 
-5874.159951 -271.516216 -250.255493 9874953.000000 1.000000 1.000000 -1046954.437500 5.000000 
-6119.815225 -518.507793 -999.048492 9582782.000000 7.000000 1.000000 -1046985.437500 0.000000 
-5650.805215 -81.519146 -864.692688 9871670.000000 1.000000 1.000000 -1046954.937500 6.000000 
-6567.687905 -271.615093 -116.283813 8405024.000000 1.000000 1.000000 -1047125.875000 1.000000 
-5798.585244 -462.851055 -247.903809 8987984.000000 5.000000 5.000000 -1047054.187500 0.000000 
-6563.586282 -518.125835 -998.330200 9883852.000000 7.000000 5.000000 -1046953.625000 0.000000 
-6237.832803 -271.554058 -681.212585 8401949.000000 1.000000 1.000000 -1047126.062500 1.000000 
-5708.948403 -483.905742 -75.828613 5420367.000000 7.000000 4.000000 -1047581.000000 0.000000 
-5790.581460 -574.974346 -109.063965 6613026.000000 7.000000 1.000000 -1047390.500000 0.000000 
-6017.501260 -81.435771 -985.406693 3472555.000000 7.000000 6.000000 -1047785.375000 0.000000 
-6766.094491 -271.546245 -322.922791 10182464.000000 1.000000 1.000000 -1046925.500000 4.000000 
-5790.453530 -650.365520 -839.330597 4254004.000000 6.000000 5.000000 -1047726.000000 0.000000 
-5797.956948 -1202.253795 -374.413025 8392707.000000 5.000000 3.000000 -1047127.000000 0.000000 
-6462.720376 -271.656353 -355.872925 5039683.000000 7.000000 6.000000 -1047640.125000 0.000000 
-6710.072213 -271.452129 -559.167725 7514139.000000 2.000000 1.000000 -1047251.500000 0.000000 
-5822.560830 -967.417888 -108.310791 6014667.000000 7.000000 4.000000 -1047485.687500 0.000000 
-5967.766885 -271.558940 -464.093384 8990926.000000 1.000000 1.000000 -1047053.875000 3.000000 
-6286.061379 -82.824077 -901.408707 4452770.000000 7.000000 7.000000 -1047706.562500 0.000000 
-5797.233193 -1000.483928 -660.219299 8986099.000000 5.000000 1.000000 -1047054.437500 0.000000 
-6216.721414 -81.511943 -938.914795 10763961.000000 1.000000 1.000000 -1046876.250000 6.000000 
-6308.014871 -181.541240 5.370728 9881320.000000 1.000000 1.000000 -1046953.937500 4.000000 
-6491.934182 -270.504985 -34.187988 5723327.000000 5.000000 1.000000 -1047533.250000 0.000000 
-6485.478677 -1520.115703 27.926758 5035311.000000 7.000000 7.000000 -1047640.750000 0.000000 
-5798.087441 -324.479351 -113.324097 7804214.000000 1.000000 1.000000 -1047208.562500 0.000000 
-6218.427773 -271.532939 -97.840210 5124829.000000 5.000000 3.000000 -1047629.062500 0.000000 
-5703.695718 -373.132061 -843.512604 4059148.000000 6.000000 3.000000 -1047743.500000 0.000000 
-5756.904946 -101.995708 -846.504486 4647673.000000 6.000000 2.000000 -1047686.562500 0.000000 
-5978.890542 -271.591045 -277.786621 8991064.000000 1.000000 1.000000 -1047053.875000 3.000000 
-5691.486367 -536.650249 -108.220337 8690693.000000 6.000000 3.000000 -1047090.000000 0.000000 
-6132.237893 -271.466655 -627.405518 5124552.000000 5.000000 3.000000 -1047629.062500 0.000000 
-5946.168740 -497.926372 -998.149597 9285212.000000 7.000000 6.000000 -1047018.750000 0.000000 
-5951.670083 -594.811870 -998.691895 9875802.000000 7.000000 3.000000 -1046954.375000 0.000000 
-5612.134316 -1381.075511 -17.558838 2879244.000000 7.000000 7.000000 -1047819.125000 0.000000 
-5695.860024 -1464.722896 82.063477 4054959.000000 6.000000 6.000000 -1047744.562500 0.000000 
-6922.236993 -271.591289 -336.824890 8704976.000000 1.000000 1.000000 -1047089.000000 1.000000 
-6125.430520 -1541.580997 11.028442 4447109.000000 7.000000 5.000000 -1047707.312500 0.000000 
-7085.551300 -181.520977 46.728882 6622056.000000 5.000000 3.000000 -1047390.062500 0.000000 
-5798.558877 -516.032695 -429.884888 8987776.000000 5.000000 5.000000 -1047054.187500 0.000000 
-5709.269082 -276.557354 -31.919922 3471633.000000 7.000000 7.000000 -1047785.437500 0.000000 
-6480.353494 -271.924175 -597.497803 6320430.000000 5.000000 4.000000 -1047438.000000 0.000000 
-6796.770303 -270.568340 -254.958374 6321758.000000 4.000000 1.000000 -1047437.937500 0.000000 
-5617.497231 -1598.243000 -909.022400 6903742.000000 4.000000 2.000000 -1047344.437500 0.000000 
-6213.326089 -271.665996 -63.063354 7213275.000000 1.000000 1.000000 -1047295.125000 0.000000 
-6297.329507 -1392.237102 -29.947754 4447937.000000 7.000000 6.000000 -1047707.187500 0.000000 
-5798.247231 -1400.571697 -579.148315 6310210.000000 2.000000 2.000000 -1047439.062500 0.000000 
-5617.552896 -1036.774028 -945.619598 7501402.000000 3.000000 1.000000 -1047252.750000 0.000000 
-5618.637246 -990.758770 -849.772491 8095351.000000 5.000000 5.000000 -1047166.750000 0.000000 
-6420.488687 -191.819927 1.009155 8700702.000000 6.000000 6.000000 -1047089.187500 0.000000 
-5776.885537 -1011.971416 -109.231079 6014177.000000 7.000000 1.000000 -1047485.750000 0.000000 
-6251.313882 -271.588359 -605.966614 8698398.000000 1.000000 1.000000 -1047089.312500 2.000000 
-6329.526284 -271.769146 -795.795685 6916131.000000 3.000000 3.000000 -1047342.625000 0.000000 
-5585.420449 -1202.913890 -107.195801 9871314.000000 7.000000 7.000000 -1046955.000000 0.000000 
-6090.352578 -133.559185 -999.048492 8697492.000000 7.000000 1.000000 -1047089.375000 0.000000 
-6642.783303 -271.072368 -216.278198 6917807.000000 3.000000 1.000000 -1047342.562500 0.000000 
-6387.367715 -271.499736 -764.024414 10471989.000000 1.000000 1.000000 -1046900.125000 5.000000 
-5809.535562 -560.234600 -108.273926 6613236.000000 7.000000 4.000000 -1047390.500000 0.000000 
-6455.861611 -1526.239696 26.246460 2879335.000000 7.000000 7.000000 -1047819.062500 0.000000 
-5842.710732 -273.653545 38.886963 8693771.000000 1.000000 1.000000 -1047089.562500 2.000000 
-5802.247964 -611.882427 -997.702606 10169172.000000 7.000000 7.000000 -1046926.312500 0.000000 
-5839.370767 -271.673442 -65.345459 6913185.000000 2.000000 2.000000 -1047342.750000 0.000000 
-5966.724282 -580.047832 -998.149597 10466602.000000 7.000000 6.000000 -1046900.375000 0.000000 
-5976.762368 -230.668804 -839.661713 3668055.000000 7.000000 2.000000 -1047773.312500 0.000000 
-5745.672036 -1144.073589 -14.784912 4643530.000000 7.000000 4.000000 -1047687.187500 0.000000 
-6893.913094 -272.401348 -286.528076 6620658.000000 5.000000 5.000000 -1047390.062500 0.000000 
-5617.913857 -582.441753 -977.562698 8097452.000000 3.000000 2.000000 -1047166.312500 0.000000 
-5782.908975 -341.402446 -16.246582 5037981.000000 7.000000 6.000000 -1047640.250000 0.000000 
-6262.540688 -271.480327 -713.503601 4843586.000000 7.000000 6.000000 -1047664.312500 0.000000 
-6345.186990 -271.532695 -504.708313 10766266.000000 1.000000 1.000000 -1046875.875000 5.000000 
-6724.226693 -271.504741 -158.885193 10476812.000000 1.000000 1.000000 -1046899.875000 4.000000 
-6454.843423 -1511.488399 27.879639 2879381.000000 7.000000 4.000000 -1047819.062500 0.000000 
-5922.308755 -271.544536 -218.437378 10760453.000000 1.000000 1.000000 -1046876.500000 4.000000 
-6562.725015 -273.020122 -409.920227 5039867.000000 7.000000 7.000000 -1047640.125000 0.000000 
-6108.362771 -270.415264 -279.453491 5124480.000000 5.000000 1.000000 -1047629.062500 0.000000 
-5603.364785 -1163.696514 -108.004761 9279604.000000 7.000000 4.000000 -1047019.687500 0.000000 
-5765.487344 -509.171245 -107.838135 8691673.000000 7.000000 5.000000 -1047089.812500 0.000000 
-6206.149026 -214.663555 -841.697693 3864337.000000 7.000000 5.000000 -1047760.062500 0.000000 
-6308.892922 -271.529155 -337.874573 10470864.000000 1.000000 1.000000 -1046900.187500 5.000000 
-5618.248696 -832.710979 -968.298096 8096122.000000 4.000000 4.000000 -1047166.562500 0.000000 
-6816.165292 -1475.225704 46.760742 4252574.000000 7.000000 2.000000 -1047726.250000 0.000000 
-5798.728677 -1447.107906 -691.591614 8094930.000000 5.000000 5.000000 -1047166.812500 0.000000 
-6986.968797 -271.536724 -127.763000 10185472.000000 1.000000 1.000000 -1046925.312500 3.000000 
-5603.900552 -804.747295 -107.389404 5716327.000000 7.000000 7.000000 -1047533.812500 0.000000 
-5617.960000 -1018.582805 -976.627502 8984072.000000 5.000000 3.000000 -1047054.875000 0.000000 
-5798.094644 -292.214092 -698.392303 6912770.000000 1.000000 1.000000 -1047342.812500 0.000000 
-5797.930947 -641.834270 -354.727417 8395296.000000 3.000000 2.000000 -1047126.500000 0.000000 
-5618.277261 -631.883892 -890.821899 8689441.000000 5.000000 4.000000 -1047090.250000 0.000000 
-5815.872720 -1045.433086 -108.234009 8986164.000000 7.000000 3.000000 -1047054.437500 0.000000 
-5797.934365 -374.295757 -795.099304 8396770.000000 3.000000 2.000000 -1047126.375000 0.000000 
-5617.926064 -923.461895 -949.550400 7502032.000000 3.000000 2.000000 -1047252.625000 0.000000 
-6598.796792 -1390.047893 1.847412 3860562.000000 7.000000 2.000000 -1047760.750000 0.000000 
-5618.098306 -90.691753 -956.240204 6913052.000000 1.000000 1.000000 -1047342.750000 0.000000 
-6704.672585 -271.570415 -648.303802 8406219.000000 1.000000 1.000000 -1047125.875000 1.000000 
-6372.657510 -271.552104 -716.246307 8995759.000000 1.000000 1.000000 -1047053.625000 3.000000 
-6952.651498 -213.857646 25.146118 9594461.000000 5.000000 2.000000 -1046984.625000 0.000000 
-6298.007119 -272.945903 -779.185913 4060205.000000 7.000000 7.000000 -1047743.375000 0.000000 
-7016.645402 -242.916362 26.348755 10481010.000000 2.000000 2.000000 -1046899.437500 0.000000 
-5617.935952 -161.264873 -920.408798 8691611.000000 4.000000 3.000000 -1047089.812500 0.000000 
-5797.581338 -896.730327 -336.904480 8690346.000000 5.000000 2.000000 -1047090.062500 0.000000 
-5797.647744 -437.271343 -291.769897 9578714.000000 7.000000 3.000000 -1046985.750000 0.000000 
-5784.888467 -331.150981 -14.226440 5038027.000000 7.000000 3.000000 -1047640.250000 0.000000 
-6111.660378 -244.965923 -19.726318 7510284.000000 7.000000 2.000000 -1047251.625000 0.000000 
-6104.273904 -81.254131 -850.158691 5039731.000000 7.000000 4.000000 -1047640.125000 0.000000 
-5747.348306 -465.475933 -997.702393 10758922.000000 7.000000 7.000000 -1046876.687500 0.000000 
-6399.726296 -272.444072 -99.448242 6021597.000000 5.000000 5.000000 -1047484.812500 0.000000 
-6555.615090 -271.496440 -591.221313 10179527.000000 1.000000 1.000000 -1046925.687500 5.000000 
-6463.853616 -1484.216899 26.493652 2879473.000000 7.000000 7.000000 -1047819.000000 0.000000 
-6065.339272 -271.551738 -157.298584 9877682.000000 1.000000 1.000000 -1046954.250000 4.000000 
-5622.869546 -1316.918804 -16.433105 2879474.000000 7.000000 2.000000 -1047819.000000 0.000000 
-5897.584512 -273.146953 60.605225 9285340.000000 1.000000 1.000000 -1047018.750000 3.000000 
-6973.009004 -270.648784 -20.808960 6919416.000000 4.000000 1.000000 -1047342.500000 0.000000 
-5977.034463 -272.245708 -644.341888 4647350.000000 7.000000 7.000000 -1047686.625000 0.000000 
-6648.761910 -482.560283 -998.952896 9885042.000000 7.000000 2.000000 -1046953.562500 0.000000 
-6688.125100 -271.568340 -431.770813 8406077.000000 1.000000 1.000000 -1047125.875000 1.000000 
-5862.631631 -600.861553 -14.373047 4450100.000000 7.000000 3.000000 -1047706.812500 0.000000 
-6033.038003 -271.979839 -547.964417 5422960.000000 5.000000 4.000000 -1047580.812500 0.000000 
-5927.385537 -271.471050 -437.804504 6913748.000000 1.000000 1.000000 -1047342.750000 0.000000 
-5824.082437 -609.511943 -14.533203 3666489.000000 7.000000 4.000000 -1047773.562500 0.000000 
-6003.841958 -181.514751 -11.150024 10171610.000000 1.000000 1.000000 -1046926.125000 4.000000 
-5985.091348 -81.010845 -882.485291 5424012.000000 5.000000 2.000000 -1047580.812500 0.000000 
-5829.202920 -271.576641 -382.451416 8989175.000000 1.000000 1.000000 -1047054.000000 3.000000 
-5750.457559 -81.490947 -937.311600 9283951.000000 1.000000 1.000000 -1047018.875000 6.000000 
-5798.552773 -497.954448 -433.251404 8987846.000000 5.000000 5.000000 -1047054.187500 0.000000 
-6349.815896 -226.249736 -5.814697 5424357.000000 7.000000 7.000000 -1047580.750000 0.000000 
-6011.940347 -81.701030 -955.447006 7213352.000000 2.000000 2.000000 -1047295.125000 0.000000 
-5801.794961 -275.466533 44.881226 10463720.000000 2.000000 1.000000 -1046900.562500 0.000000 
-7018.804498 -270.992656 -183.189514 6023908.000000 5.000000 2.000000 -1047484.750000 0.000000 
-5702.516885 -479.724224 -997.606796 8986732.000000 7.000000 7.000000 -1047054.375000 0.000000 
-6072.289956 -272.505840 -544.814819 5423100.000000 5.000000 5.000000 -1047580.812500 0.000000 
-5609.870645 -569.091899 -108.473022 7206975.000000 7.000000 2.000000 -1047295.750000 0.000000 
-6837.536691 -271.537944 -14.799683 9888251.000000 1.000000 1.000000 -1046953.375000 3.000000 
-5797.112954 -1174.994091 -440.113525 9577737.000000 7.000000 1.000000 -1046985.937500 0.000000 
-5797.935342 -828.212017 -372.610413 7801067.000000 3.000000 2.000000 -1047209.000000 0.000000 
-6789.233407 -271.560894 -114.355347 9887622.000000 1.000000 1.000000 -1046953.375000 3.000000 
-5797.601479 -808.631694 -543.903076 8394458.000000 5.000000 2.000000 -1047126.687500 0.000000 
-6717.154611 -271.070049 -606.982300 6619890.000000 5.000000 2.000000 -1047390.125000 0.000000 
-5797.184976 -1275.323497 -267.336121 8688946.000000 5.000000 1.000000 -1047090.312500 0.000000 
-7093.753400 -270.275859 -38.075562 5127349.000000 3.000000 1.000000 -1047629.000000 0.000000 
-5916.513345 -271.867168 -640.060913 6317770.000000 3.000000 3.000000 -1047438.125000 0.000000 
-6763.707314 -1390.342906 -107.483154 4840501.000000 7.000000 2.000000 -1047664.625000 0.000000 
-5995.905557 -475.942852 -998.511093 9285912.000000 7.000000 4.000000 -1047018.750000 0.000000 
-5617.591470 -745.504680 -964.046402 7799952.000000 3.000000 1.000000 -1047209.250000 0.000000 
-6199.171792 -1391.399700 -183.496704 5035082.000000 7.000000 4.000000 -1047640.812500 0.000000 
-6577.463113 -271.471782 -679.208893 10769558.000000 1.000000 1.000000 -1046875.750000 5.000000 
-5798.174966 -765.296306 -563.360596 7207119.000000 2.000000 2.000000 -1047295.750000 0.000000 
-5798.151772 -474.610820 -589.018127 7209009.000000 1.000000 1.000000 -1047295.437500 0.000000 
-6239.256326 -83.253887 -977.778793 3668791.000000 7.000000 7.000000 -1047773.250000 0.000000 
-5617.651162 -201.348369 -917.916504 8691401.000000 5.000000 2.000000 -1047089.875000 0.000000 
-6587.016702 -272.929180 -827.282898 4256487.000000 7.000000 7.000000 -1047725.750000 0.000000 
-5798.176064 -1087.496807 -448.295776 6311959.000000 2.000000 2.000000 -1047438.812500 0.000000 
-5901.510415 -81.535137 -939.981796 9580891.000000 1.000000 1.000000 -1046985.625000 6.000000 
-5806.860757 -271.530498 -542.448608 8693357.000000 1.000000 1.000000 -1047089.625000 3.000000 
-6274.330300 -200.027446 -8.349121 8106123.000000 6.000000 1.000000 -1047165.500000 0.000000 
-5798.297402 -577.225078 -725.390686 9578509.000000 7.000000 5.000000 -1046985.812500 0.000000 
-5878.366494 -81.514873 -942.226395 10169661.000000 1.000000 1.000000 -1046926.250000 6.000000 
-5797.220376 -1147.205425 -326.923706 9281776.000000 6.000000 1.000000 -1047019.187500 0.000000 
-5618.324624 -1302.027599 -956.450699 8390612.000000 5.000000 4.000000 -1047127.437500 0.000000 
-5675.882485 -1468.195507 90.418091 4054913.000000 3.000000 1.000000 -1047744.562500 0.000000 
-6146.845315 -270.484600 -706.090302 5423381.000000 5.000000 1.000000 -1047580.812500 0.000000 
-6832.697213 -271.725811 -456.279480 7812618.000000 2.000000 2.000000 -1047208.125000 0.000000 
-5694.774209 -417.902690 -998.953201 10758082.000000 7.000000 2.000000 -1046876.812500 0.000000 
-5617.857827 -1118.452983 -904.621307 6310772.000000 2.000000 1.000000 -1047439.000000 0.000000 
-6192.587686 -271.512065 -77.577026 5722207.000000 5.000000 3.000000 -1047533.312500 0.000000 
-5688.331460 -450.383892 -998.953003 8986662.000000 7.000000 2.000000 -1047054.375000 0.000000 
-6696.121011 -272.022441 -351.585205 5724029.000000 5.000000 4.000000 -1047533.250000 0.000000 
-5598.513955 -1200.530010 -107.210327 9575494.000000 7.000000 7.000000 -1046986.375000 0.000000 
-6369.114114 -271.532939 -823.507507 9291440.000000 1.000000 1.000000 -1047018.375000 3.000000 
-5902.241738 -397.641216 -998.330505 8989532.000000 7.000000 5.000000 -1047053.937500 0.000000 
-5749.943276 -539.884380 -998.330399 10463732.000000 7.000000 5.000000 -1046900.562500 0.000000 
-5917.634072 -271.509258 -759.224609 9580679.000000 1.000000 1.000000 -1046985.625000 5.000000 
-5861.082314 -270.166118 -526.484802 4059745.000000 7.000000 2.000000 -1047743.375000 0.000000 
-5925.388345 -221.538799 -998.953293 8695042.000000 7.000000 2.000000 -1047089.500000 0.000000 
-5798.147744 -898.042705 -758.787811 6313081.000000 2.000000 2.000000 -1047438.625000 0.000000 
-6353.186379 -271.546123 -423.504883 10176655.000000 1.000000 1.000000 -1046925.875000 5.000000 
-5797.875894 -1103.039470 -476.994507 6609809.000000 2.000000 1.000000 -1047391.062500 0.000000 
-5637.032876 -1266.691906 -18.275269 2879658.000000 7.000000 5.000000 -1047818.937500 0.000000 
-5996.550942 -271.520000 -595.969910 10171547.000000 1.000000 1.000000 -1046926.125000 5.000000 
-5798.104043 -984.120281 -198.519897 6610507.000000 2.000000 2.000000 -1047390.937500 0.000000 
-5498.178872 -1178.246807 -107.599243 9278414.000000 7.000000 6.000000 -1047019.937500 0.000000 
-5785.549355 -942.081523 -108.274170 6908426.000000 7.000000 4.000000 -1047343.500000 0.000000 
-6433.124978 -257.034648 26.485229 5039682.000000 7.000000 5.000000 -1047640.125000 0.000000 
-6623.682290 -221.815654 -839.535797 4256717.000000 7.000000 1.000000 -1047725.750000 0.000000 
-6404.646096 -271.545879 -322.991577 9882444.000000 1.000000 1.000000 -1046953.750000 4.000000 
-6433.520791 -272.271953 -523.785706 4648085.000000 7.000000 7.000000 -1047686.562500 0.000000 
-6475.939187 -1413.952495 27.250000 2879703.000000 7.000000 7.000000 -1047818.937500 0.000000 
-5798.030557 -511.316753 -207.737793 6315527.000000 1.000000 1.000000 -1047438.312500 0.000000 
-6132.947488 -271.550762 -161.825928 10173502.000000 1.000000 1.000000 -1046926.000000 4.000000 
-6422.304604 -1434.891506 27.595337 4839673.000000 7.000000 1.000000 -1047664.812500 0.000000 
-5803.235879 -275.712261 -999.048492 8693292.000000 7.000000 1.000000 -1047089.625000 0.000000 
-6197.729897 -206.490093 -11.514526 7511194.000000 7.000000 6.000000 -1047251.625000 0.000000 
-6363.176125 -271.523174 -679.089294 10176798.000000 1.000000 1.000000 -1046925.875000 5.000000 
-5648.246743 -645.934490 -846.546387 4840873.000000 6.000000 3.000000 -1047664.562500 0.000000 
-5866.926797 -271.762554 -537.888306 6615549.000000 2.000000 2.000000 -1047390.250000 0.000000 
-7007.551003 -271.570659 -93.102783 9890422.000000 1.000000 1.000000 -1046953.187500 3.000000 
-5839.917764 -614.755352 -997.702499 10169662.000000 7.000000 7.000000 -1046926.250000 0.000000 
-5797.542031 -1398.515605 -290.305481 7798127.000000 4.000000 2.000000 -1047209.687500 0.000000 
-6551.890298 -270.374858 -492.213928 4844091.000000 7.000000 2.000000 -1047664.250000 0.000000 
-5554.477334 -1195.366893 -108.753662 9870964.000000 7.000000 1.000000 -1046955.062500 0.000000 
-5617.252236 -944.187480 -852.611603 8095561.000000 4.000000 1.000000 -1047166.687500 0.000000 
-6329.756570 -1389.832714 -193.932983 4056201.000000 7.000000 1.000000 -1047744.250000 0.000000 
-6278.888894 -271.534526 -503.149780 9880696.000000 1.000000 1.000000 -1046954.062500 5.000000 
-5830.453164 -271.587871 -633.486023 8693638.000000 1.000000 1.000000 -1047089.562500 3.000000 
-5851.171426 -238.545635 -838.862701 4842943.000000 6.000000 1.000000 -1047664.312500 0.000000 
-6256.571023 -207.498149 -9.824463 8105913.000000 6.000000 1.000000 -1047165.500000 0.000000 
-6145.600625 -81.522808 -864.796906 10173720.000000 1.000000 1.000000 -1046926.000000 6.000000 
-6884.307305 -271.465557 -279.677429 7515187.000000 2.000000 1.000000 -1047251.437500 0.000000 
-6610.574105 -181.592998 18.087036 9294861.000000 1.000000 1.000000 -1047018.187500 2.000000 
-5643.418008 -1241.427806 -18.923828 2879750.000000 7.000000 7.000000 -1047818.875000 0.000000 
-6434.629983 -81.545513 -849.300201 9588520.000000 1.000000 1.000000 -1046985.000000 5.000000 
-6028.065713 -270.464336 -124.194214 5038809.000000 7.000000 2.000000 -1047640.187500 0.000000 
-6178.579080 -430.548687 -998.149597 9288362.000000 7.000000 6.000000 -1047018.562500 0.000000 
-6269.416787 -1390.749095 -25.511230 3468090.000000 7.000000 4.000000 -1047786.250000 0.000000 
-5617.897744 -267.701763 -988.996796 8099342.000000 2.000000 1.000000 -1047166.000000 0.000000 
-6903.452905 -271.600811 -258.218628 9593554.000000 1.000000 1.000000 -1046984.687500 2.000000 
-6767.783914 -252.700054 12.281372 9592011.000000 5.000000 1.000000 -1046984.750000 0.000000 
-6614.051797 -80.664287 -911.542892 6620732.000000 5.000000 1.000000 -1047390.062500 0.000000 
-6138.526711 -81.550640 -921.057495 8994081.000000 1.000000 1.000000 -1047053.687500 3.000000 
-7002.781999 -1394.292491 53.629761 4449086.000000 7.000000 7.000000 -1047706.937500 0.000000 
-5798.143716 -611.461528 -452.834778 7208098.000000 1.000000 1.000000 -1047295.562500 0.000000 
-6685.591805 -270.647197 -609.411072 6619750.000000 5.000000 1.000000 -1047390.125000 0.000000 
-6792.289987 -271.562847 -161.809082 10772632.000000 1.000000 1.000000 -1046875.437500 4.000000 
-6610.692086 -271.891582 -171.247009 6619397.000000 3.000000 3.000000 -1047390.125000 0.000000 
-5694.808267 -349.380596 -997.969101 8691612.000000 7.000000 7.000000 -1047089.812500 0.000000 
-5990.179360 -272.340923 -607.448303 6019850.000000 5.000000 5.000000 -1047484.875000 0.000000 
-6353.617593 -271.540996 -661.023895 9586628.000000 1.000000 1.000000 -1046985.125000 4.000000 
-5760.241372 -800.020671 -8.383179 3665707.000000 7.000000 1.000000 -1047773.687500 0.000000 
-5645.184243 -1228.524211 -18.599854 2879796.000000 7.000000 7.000000 -1047818.875000 0.000000 
-5811.263101 -780.093120 -107.598877 8394734.000000 7.000000 6.000000 -1047126.625000 0.000000 
-5798.077310 -563.479351 -735.387085 5718711.000000 1.000000 1.000000 -1047533.500000 0.000000 
-6500.882180 -81.573711 -882.551392 8405801.000000 1.000000 1.000000 -1047125.875000 1.000000 
-6319.567117 -222.149150 -7.323242 8699442.000000 6.000000 2.000000 -1047089.250000 0.000000 
-5824.403481 -568.222271 -998.953003 9578862.000000 7.000000 2.000000 -1046985.750000 0.000000 
-5798.309243 -787.059307 -275.727905 8986795.000000 5.000000 4.000000 -1047054.375000 0.000000 
-5617.938882 -1004.151897 -848.987488 8095281.000000 7.000000 3.000000 -1047166.750000 0.000000 
-5794.654702 -1424.733806 -14.388306 5033978.000000 7.000000 2.000000 -1047641.062500 0.000000 
-6473.796914 -271.540142 -156.379272 10768082.000000 1.000000 1.000000 -1046875.812500 4.000000 
-6133.693215 -259.572490 -19.335938 8104443.000000 6.000000 3.000000 -1047165.562500 0.000000 
-6824.347909 -276.762432 44.714844 3864610.000000 7.000000 7.000000 -1047760.000000 0.000000 
-6046.487344 -176.799297 -844.516693 5039225.000000 6.000000 6.000000 -1047640.125000 0.000000 
-5798.318643 -921.855571 -678.852509 9282269.000000 5.000000 4.000000 -1047019.125000 0.000000 
-5618.172891 -802.796489 -924.627899 6610512.000000 2.000000 2.000000 -1047390.937500 0.000000 
-6222.047585 -284.448589 -997.702499 8993942.000000 7.000000 7.000000 -1047053.687500 0.000000 
-6920.877099 -1393.139812 -310.910583 3468688.000000 7.000000 7.000000 -1047786.062500 0.000000 
-5681.327554 -795.813396 -108.253052 7503285.000000 7.000000 3.000000 -1047252.437500 0.000000 
-5818.659341 -270.450176 -734.046814 5038351.000000 7.000000 2.000000 -1047640.187500 0.000000 
-6516.520974 -81.577983 -991.483505 8702462.000000 1.000000 1.000000 -1047089.125000 2.000000 
-5617.198403 -1154.654308 -941.494095 7500772.000000 4.000000 1.000000 -1047252.812500 0.000000 
-6122.589822 -81.524883 -864.816010 10173370.000000 1.000000 1.000000 -1046926.000000 6.000000 
-6133.674172 -431.297344 -998.691895 9287802.000000 7.000000 3.000000 -1047018.625000 0.000000 
-5618.233071 -1286.009594 -888.931213 6011802.000000 2.000000 2.000000 -1047486.125000 0.000000 
-5679.582803 -1444.406597 -15.437744 4837972.000000 7.000000 6.000000 -1047665.125000 0.000000 
-6212.241616 -288.924541 -997.702606 8993802.000000 7.000000 7.000000 -1047053.687500 0.000000 
-5724.013101 -387.568828 -842.762207 3471221.000000 7.000000 5.000000 -1047785.500000 0.000000 
-5597.701211 -694.957805 -107.835693 10462253.000000 7.000000 5.000000 -1046900.875000 0.000000 
-6511.572488 -81.488750 -942.744202 10473811.000000 1.000000 1.000000 -1046900.000000 6.000000 
-5797.897622 -1062.250530 -647.294495 6907800.000000 2.000000 1.000000 -1047343.687500 0.000000 
-5798.177773 -911.141582 -585.735901 6014880.000000 1.000000 1.000000 -1047485.625000 0.000000 
-5823.588052 -105.336406 -998.149506 8398732.000000 7.000000 6.000000 -1047126.187500 0.000000 
-6197.488320 -244.981182 -14.707153 9289401.000000 4.000000 4.000000 -1047018.500000 0.000000 
-6312.628030 -224.728984 -998.330795 8995342.000000 7.000000 5.000000 -1047053.625000 0.000000 
-6087.630593 -271.738994 -808.291992 6914731.000000 2.000000 2.000000 -1047342.687500 0.000000 
-6060.167031 -80.160869 -884.201813 4256626.000000 7.000000 2.000000 -1047725.750000 0.000000 
-6951.112206 -1391.504802 -177.244873 10774455.000000 1.000000 1.000000 -1046875.250000 2.000000 
-6269.622720 -298.530620 18.305420 4843492.000000 7.000000 5.000000 -1047664.312500 0.000000 
-6960.138299 -284.882793 52.797363 4844687.000000 7.000000 5.000000 -1047664.250000 0.000000 
-5798.101479 -292.091289 -593.560913 5720460.000000 1.000000 1.000000 -1047533.375000 0.000000 
-6703.424294 -1391.253398 -211.863586 4448627.000000 7.000000 4.000000 -1047707.062500 0.000000 
-5898.207559 -828.364177 18.623657 3861713.000000 2.000000 2.000000 -1047760.437500 0.000000 
-6224.973794 -271.478740 -224.044800 6617507.000000 2.000000 2.000000 -1047390.187500 0.000000 
-5581.527261 -1094.850688 -107.190186 7797775.000000 7.000000 7.000000 -1047209.750000 0.000000 
-5673.584634 -393.663433 -59.457642 8099123.000000 2.000000 2.000000 -1047166.000000 0.000000 
-6880.199700 -271.508037 -250.810120 10773893.000000 1.000000 1.000000 -1046875.312500 5.000000 
-5632.651650 -417.653667 -998.149704 10757312.000000 7.000000 6.000000 -1046877.000000 0.000000 
-5725.880654 -150.632061 -998.511093 8397332.000000 7.000000 4.000000 -1047126.312500 0.000000 
-6417.880227 -271.473857 -656.099609 6916620.000000 2.000000 2.000000 -1047342.562500 0.000000 
-6390.676492 -197.746807 -2.310181 8700352.000000 5.000000 1.000000 -1047089.187500 0.000000 
-5797.912271 -881.917095 -330.429626 7503707.000000 2.000000 1.000000 -1047252.312500 0.000000 
-6353.807290 -199.241924 -998.511200 8995972.000000 7.000000 4.000000 -1047053.625000 0.000000 
-5958.785928 -271.527080 -128.945923 10760942.000000 1.000000 1.000000 -1046876.500000 4.000000 
-5798.758462 -1223.074687 -634.840576 8985469.000000 5.000000 5.000000 -1047054.625000 0.000000 
-5721.154458 -604.790264 -998.511307 9872792.000000 7.000000 4.000000 -1046954.687500 0.000000 
-5650.378945 -1189.806804 -17.633057 2879934.000000 7.000000 7.000000 -1047818.875000 0.000000 
