ply
format ascii 1.0
comment Created by CloudCompare v2.12 alpha
comment Created 6/8/2021 9:15 PM
obj_info Generated by CloudCompare!
element vertex 501
property double x
property double y
property double z
property float scalar_fullwaveIndex
property float scalar_NumberOfReturns
property float scalar_ReturnNumber
property float scalar_GpsTime
property float scalar_Intensity
end_header
6826.014609 -273.081157 -558.047729 6216271.000000 6.000000 6.000000 -1047457.500000 0.000000 
6002.123008 -461.626201 -275.804077 7416000.000000 1.000000 1.000000 -1047269.375000 0.000000 
6254.630820 -272.325542 -260.285828 7414670.000000 6.000000 4.000000 -1047269.437500 0.000000 
6500.012656 -1391.874187 -239.676880 3789912.000000 7.000000 6.000000 -1047765.187500 0.000000 
5822.307578 -1611.770702 -996.206100 6823313.000000 2.000000 2.000000 -1047361.500000 0.000000 
6857.600547 -232.670146 9.594482 7114089.000000 7.000000 7.000000 -1047315.562500 0.000000 
7252.424766 -1390.414989 29.084839 2799350.000000 7.000000 1.000000 -1047821.437500 0.000000 
7246.326133 -1391.646801 -126.487488 3590363.000000 7.000000 5.000000 -1047778.187500 0.000000 
5705.954062 -1211.543102 -106.235962 6821769.000000 7.000000 7.000000 -1047361.750000 0.000000 
7254.287070 -1391.184093 27.285645 2799350.000000 7.000000 4.000000 -1047821.437500 0.000000 
7254.612266 -1391.318401 26.971680 2799350.000000 7.000000 5.000000 -1047821.437500 0.000000 
7254.986289 -1391.472789 26.610596 2799350.000000 7.000000 6.000000 -1047821.437500 0.000000 
6339.234336 -1504.754100 12.285034 4777666.000000 7.000000 3.000000 -1047673.125000 0.000000 
6183.153281 -272.257305 -791.184204 6516852.000000 5.000000 4.000000 -1047411.000000 0.000000 
7256.347617 -1392.034801 25.296021 2799350.000000 7.000000 7.000000 -1047821.437500 0.000000 
6285.334922 -272.839580 -494.704773 4377746.000000 7.000000 7.000000 -1047714.750000 0.000000 
6865.306602 -79.542095 -950.829605 8910643.000000 5.000000 2.000000 -1047068.062500 0.000000 
7235.480430 -1390.418987 42.991577 2799396.000000 7.000000 1.000000 -1047821.437500 0.000000 
6904.179648 -204.400859 41.177002 4178426.000000 5.000000 1.000000 -1047733.437500 0.000000 
7173.258750 -1392.419109 -80.933350 3590547.000000 7.000000 6.000000 -1047778.187500 0.000000 
7237.296836 -1391.172191 41.235840 2799396.000000 7.000000 4.000000 -1047821.437500 0.000000 
7237.664023 -1391.324504 40.880859 2799396.000000 7.000000 5.000000 -1047821.437500 0.000000 
6003.891562 -561.369487 -108.888550 6817919.000000 7.000000 3.000000 -1047362.187500 0.000000 
6782.927695 -181.592388 32.188965 3980719.000000 7.000000 6.000000 -1047750.750000 0.000000 
6512.722617 -1534.363697 20.632080 3790555.000000 4.000000 2.000000 -1047765.062500 0.000000 
7239.355430 -1392.026012 39.246094 2799396.000000 7.000000 7.000000 -1047821.437500 0.000000 
6002.133750 -632.261333 -778.249695 6818272.000000 1.000000 1.000000 -1047362.125000 0.000000 
5822.434531 -256.112896 -979.202393 4971468.000000 2.000000 2.000000 -1047651.562500 0.000000 
6001.941367 -1242.209087 -640.304596 5326431.000000 1.000000 1.000000 -1047600.062500 0.000000 
6734.597617 -1459.897701 31.283813 4973901.000000 7.000000 5.000000 -1047651.250000 0.000000 
6963.472617 -269.872051 -481.721985 7114091.000000 7.000000 2.000000 -1047315.562500 0.000000 
6102.181602 -1330.762096 -168.818726 5924229.000000 1.000000 1.000000 -1047504.875000 0.000000 
7222.509727 -1392.028606 53.062866 2799442.000000 7.000000 5.000000 -1047821.437500 0.000000 
7128.062461 -273.314556 -246.934021 6814420.000000 6.000000 6.000000 -1047362.437500 0.000000 
6297.658164 -81.505596 -983.030396 7713153.000000 7.000000 4.000000 -1047227.312500 0.000000 
6167.941367 -271.485088 -221.393494 3784670.000000 7.000000 6.000000 -1047766.000000 0.000000 
7214.961875 -1402.863292 55.405518 2799534.000000 1.000000 1.000000 -1047821.437500 0.000000 
6723.272422 -1390.647106 -114.030884 3591744.000000 7.000000 2.000000 -1047778.000000 0.000000 
6406.764609 -1396.505901 15.969604 4777114.000000 7.000000 2.000000 -1047673.187500 0.000000 
6376.568320 -269.971660 -42.128540 7115069.000000 6.000000 1.000000 -1047315.500000 0.000000 
6635.431602 -190.399761 -843.784912 4771919.000000 6.000000 6.000000 -1047673.812500 0.000000 
5950.774375 -502.194561 -16.216919 4379677.000000 5.000000 1.000000 -1047714.562500 0.000000 
6552.024375 -270.001201 -530.291077 6815401.000000 6.000000 1.000000 -1047362.375000 0.000000 
5916.544883 -339.384868 -50.202148 7415579.000000 7.000000 7.000000 -1047269.375000 0.000000 
6391.702109 -270.873271 -824.559814 5618892.000000 5.000000 2.000000 -1047553.375000 0.000000 
6484.457969 -271.326885 -836.289093 3783935.000000 7.000000 6.000000 -1047766.000000 0.000000 
6176.338828 -271.975200 -220.982117 4773206.000000 7.000000 7.000000 -1047673.750000 0.000000 
6789.622031 -270.829204 -154.378113 5917089.000000 5.000000 2.000000 -1047505.625000 0.000000 
6155.706016 -134.764995 -845.618408 3783844.000000 1.000000 1.000000 -1047766.062500 0.000000 
6472.247031 -271.303813 -272.838318 4377331.000000 7.000000 4.000000 -1047714.812500 0.000000 
6819.373008 -270.136943 -580.844177 5917021.000000 5.000000 1.000000 -1047505.625000 0.000000 
6787.833945 -269.961284 -36.475952 6814979.000000 6.000000 1.000000 -1047362.375000 0.000000 
6484.138633 -1391.686199 -229.283691 3789958.000000 7.000000 5.000000 -1047765.187500 0.000000 
7290.246055 -1391.056804 -2.037598 4380318.000000 7.000000 3.000000 -1047714.437500 0.000000 
6790.546836 -272.193340 -212.121216 4771963.000000 7.000000 7.000000 -1047673.812500 0.000000 
6002.013633 -467.443828 -467.798889 3984080.000000 2.000000 2.000000 -1047750.375000 0.000000 
5966.801719 -291.176494 -14.534912 4180912.000000 4.000000 2.000000 -1047733.250000 0.000000 
7172.507773 -1392.049297 -212.887695 2799581.000000 7.000000 7.000000 -1047821.437500 0.000000 
6593.466758 -259.202861 -837.768707 4772287.000000 6.000000 1.000000 -1047673.812500 0.000000 
6141.327109 -272.915874 -73.698120 4970821.000000 7.000000 7.000000 -1047651.625000 0.000000 
5886.981406 -357.351665 -52.673950 7415719.000000 7.000000 7.000000 -1047269.375000 0.000000 
6595.369102 -271.520122 -57.612183 6815329.000000 6.000000 3.000000 -1047362.375000 0.000000 
7152.886680 -1390.680400 -195.046021 2799627.000000 7.000000 2.000000 -1047821.437500 0.000000 
6652.725547 -272.132427 -565.671875 3981457.000000 7.000000 7.000000 -1047750.687500 0.000000 
6102.123984 -1017.482891 -124.570557 8615800.000000 1.000000 1.000000 -1047104.000000 0.000000 
6718.815391 -271.099956 -311.869812 4574486.000000 7.000000 3.000000 -1047695.687500 0.000000 
6064.099570 -536.016826 -107.637817 5322368.000000 7.000000 6.000000 -1047600.625000 0.000000 
6002.410117 -333.889507 -726.752411 4181052.000000 3.000000 3.000000 -1047733.187500 0.000000 
7122.023398 -269.095562 6.239014 9210730.000000 7.000000 1.000000 -1047032.250000 0.000000 
6001.959922 -1323.715709 -829.640106 5326852.000000 2.000000 1.000000 -1047600.000000 0.000000 
5927.975547 -1077.340007 -13.593262 3987574.000000 4.000000 4.000000 -1047749.750000 0.000000 
7157.487266 -1392.628307 -199.857483 2799627.000000 7.000000 7.000000 -1047821.437500 0.000000 
7081.090781 -1392.532695 -259.301514 4380779.000000 7.000000 6.000000 -1047714.375000 0.000000 
7135.954062 -1390.395488 -180.004822 2799673.000000 7.000000 1.000000 -1047821.437500 0.000000 
6997.898398 -1391.213115 -470.775391 3986055.000000 7.000000 5.000000 -1047750.000000 0.000000 
6485.922812 -1391.696910 -302.432983 4382206.000000 7.000000 6.000000 -1047714.125000 0.000000 
6169.432578 -271.509990 -509.073608 7414811.000000 6.000000 3.000000 -1047269.437500 0.000000 
6016.221641 -81.267925 -874.729492 4575087.000000 7.000000 5.000000 -1047695.625000 0.000000 
6002.218711 -1073.418804 -796.803192 6222222.000000 1.000000 1.000000 -1047457.062500 0.000000 
6209.942344 -1391.251598 -83.208496 3593355.000000 4.000000 2.000000 -1047777.812500 0.000000 
7139.447227 -1391.880687 -183.660889 2799673.000000 7.000000 7.000000 -1047821.437500 0.000000 
6246.181602 -270.875347 -414.934998 5918350.000000 5.000000 2.000000 -1047505.562500 0.000000 
6744.755820 -1438.844997 32.902710 4973809.000000 7.000000 2.000000 -1047651.312500 0.000000 
7225.717734 -1508.628505 55.641846 3986007.000000 6.000000 5.000000 -1047750.062500 0.000000 
6458.747031 -1512.929897 16.687622 4382757.000000 6.000000 6.000000 -1047714.000000 0.000000 
7065.148398 -281.697246 48.241089 4376225.000000 6.000000 3.000000 -1047714.875000 0.000000 
6758.926719 -80.753154 -998.511307 6514753.000000 5.000000 2.000000 -1047411.125000 0.000000 
5880.375937 -82.576152 -954.508698 4970594.000000 7.000000 7.000000 -1047651.625000 0.000000 
7121.643516 -1391.180004 -167.699402 2799719.000000 7.000000 4.000000 -1047821.437500 0.000000 
7017.911094 -270.111309 -129.621216 5916599.000000 5.000000 1.000000 -1047505.625000 0.000000 
5787.264609 -1410.378200 -15.623413 4186983.000000 4.000000 3.000000 -1047732.000000 0.000000 
6130.483359 -270.907451 -263.547302 5619589.000000 5.000000 2.000000 -1047553.312500 0.000000 
6463.751914 -147.672710 -843.713013 4574442.000000 5.000000 1.000000 -1047695.687500 0.000000 
6002.015586 -296.302104 -228.131409 4576143.000000 2.000000 1.000000 -1047695.562500 0.000000 
6002.153281 -629.607524 -641.330902 5621971.000000 1.000000 1.000000 -1047553.062500 0.000000 
5893.148398 -825.041729 -107.561279 6819459.000000 7.000000 6.000000 -1047362.000000 0.000000 
7202.624961 -1432.677104 54.793213 2799764.000000 1.000000 1.000000 -1047821.437500 0.000000 
5822.129844 -263.632671 -943.597900 10110933.000000 1.000000 1.000000 -1046936.000000 0.000000 
6881.343711 -1448.215908 39.062622 4184037.000000 6.000000 3.000000 -1047732.687500 0.000000 
5771.293906 -1025.582012 -109.764160 6820719.000000 7.000000 1.000000 -1047361.875000 0.000000 
6190.284141 -271.471172 -338.790588 4575591.000000 7.000000 6.000000 -1047695.562500 0.000000 
7105.931602 -1391.323009 -153.919006 2799765.000000 7.000000 5.000000 -1047821.437500 0.000000 
5896.014609 -816.596599 -8.291260 4578764.000000 6.000000 1.000000 -1047695.187500 0.000000 
7106.681602 -1391.644695 -154.705505 2799765.000000 7.000000 7.000000 -1047821.437500 0.000000 
7107.200156 -1391.866710 -155.248108 2799765.000000 7.000000 7.000000 -1047821.437500 0.000000 
6740.206016 -273.037456 -393.631226 4969625.000000 7.000000 7.000000 -1047651.687500 0.000000 
5907.878867 -803.254497 -107.120117 6819319.000000 7.000000 7.000000 -1047362.000000 0.000000 
5842.784141 -1150.876903 -15.057983 3593310.000000 1.000000 1.000000 -1047777.812500 0.000000 
7035.718711 -1391.227306 -493.979370 3985963.000000 4.000000 3.000000 -1047750.062500 0.000000 
7176.794883 -268.946147 -259.873291 9810001.000000 4.000000 1.000000 -1046965.750000 0.000000 
6042.861289 -589.764751 -13.963257 4577384.000000 6.000000 1.000000 -1047695.375000 0.000000 
6102.171836 -862.370281 -121.563477 6519999.000000 1.000000 1.000000 -1047410.687500 0.000000 
7089.685508 -1391.190807 -139.570801 2799811.000000 7.000000 4.000000 -1047821.437500 0.000000 
6079.184531 -269.546855 -54.459351 9511450.000000 7.000000 2.000000 -1046998.187500 0.000000 
7090.363242 -1391.482585 -140.281616 2799811.000000 7.000000 6.000000 -1047821.437500 0.000000 
5821.549766 -237.364482 -923.503006 3785363.000000 5.000000 2.000000 -1047765.875000 0.000000 
7034.191367 -269.925151 -9.255737 6814559.000000 6.000000 1.000000 -1047362.375000 0.000000 
7091.639609 -1392.031505 -141.618896 2799811.000000 7.000000 7.000000 -1047821.437500 0.000000 
6479.193320 -1479.812297 17.712524 4382573.000000 6.000000 6.000000 -1047714.062500 0.000000 
6126.551719 -270.148662 -651.352509 4575730.000000 7.000000 1.000000 -1047695.562500 0.000000 
7197.646445 -1444.586895 54.530762 2799856.000000 1.000000 1.000000 -1047821.437500 0.000000 
6002.199180 -537.996929 -601.297424 6219491.000000 1.000000 1.000000 -1047457.312500 0.000000 
6102.142539 -1210.996990 -117.877441 8616570.000000 1.000000 1.000000 -1047103.937500 0.000000 
7073.835898 -1391.181987 -125.628418 2799857.000000 7.000000 3.000000 -1047821.437500 0.000000 
6048.052695 -271.518169 -340.140686 6816380.000000 6.000000 3.000000 -1047362.312500 0.000000 
7150.301719 -1432.784893 52.819946 4380778.000000 7.000000 3.000000 -1047714.375000 0.000000 
6010.374961 -273.096294 -496.376221 7714481.000000 5.000000 4.000000 -1047227.250000 0.000000 
6761.637656 -1391.225688 10.363403 3986652.000000 7.000000 3.000000 -1047749.937500 0.000000 
5821.074180 -223.235454 -916.675995 3785271.000000 4.000000 1.000000 -1047765.937500 0.000000 
6883.014609 -1449.219905 37.893188 4184037.000000 6.000000 6.000000 -1047732.687500 0.000000 
7077.084922 -1392.585796 -129.037109 2799857.000000 7.000000 7.000000 -1047821.437500 0.000000 
6454.002891 -270.826152 -762.681213 3981872.000000 7.000000 3.000000 -1047750.625000 0.000000 
7056.379844 -1390.430614 -109.992310 2799903.000000 7.000000 1.000000 -1047821.375000 0.000000 
6212.596641 -212.132061 -22.833862 7414459.000000 7.000000 5.000000 -1047269.437500 0.000000 
5914.113242 -567.342021 -16.063354 4380091.000000 5.000000 4.000000 -1047714.500000 0.000000 
5925.088828 -667.112224 -842.700195 3985415.000000 1.000000 1.000000 -1047750.187500 0.000000 
6102.165000 -1042.427898 -154.570984 8316480.000000 1.000000 1.000000 -1047141.250000 0.000000 
6002.190391 -978.855022 -412.311707 8615801.000000 1.000000 1.000000 -1047104.000000 0.000000 
5777.935508 -1000.354290 -107.638306 5325938.000000 7.000000 6.000000 -1047600.125000 0.000000 
6968.947227 -1391.919811 -203.086975 3788623.000000 7.000000 7.000000 -1047765.375000 0.000000 
6585.840781 -1392.695812 -347.886108 3592159.000000 7.000000 7.000000 -1047778.000000 0.000000 
6002.172812 -708.832805 -297.549011 7117870.000000 1.000000 1.000000 -1047315.250000 0.000000 
6560.371055 -1390.276805 -278.351501 3789728.000000 7.000000 1.000000 -1047765.187500 0.000000 
7126.620078 -272.923564 -340.213928 5916390.000000 6.000000 5.000000 -1047505.625000 0.000000 
6010.545859 -603.946270 -109.450928 5322928.000000 7.000000 1.000000 -1047600.562500 0.000000 
6630.507773 -272.822490 -636.342712 5319221.000000 5.000000 5.000000 -1047600.812500 0.000000 
6152.255820 -270.472148 -562.068481 4773253.000000 7.000000 2.000000 -1047673.750000 0.000000 
7062.267539 -1391.250499 -11.236450 3590823.000000 7.000000 3.000000 -1047778.125000 0.000000 
6858.000937 -269.160259 -563.086487 10709362.000000 7.000000 2.000000 -1046884.687500 0.000000 
6813.547812 -200.564556 -841.978790 4376320.000000 5.000000 2.000000 -1047714.875000 0.000000 
7060.622031 -1392.351696 -436.806824 2799904.000000 7.000000 7.000000 -1047821.375000 0.000000 
7061.312461 -1392.650890 -437.587585 2799904.000000 7.000000 7.000000 -1047821.375000 0.000000 
6583.521445 -271.647686 -344.706421 4377101.000000 7.000000 6.000000 -1047714.812500 0.000000 
6732.452109 -272.416484 -727.422485 7413902.000000 7.000000 5.000000 -1047269.437500 0.000000 
7041.417930 -1390.712993 -96.963623 2799949.000000 7.000000 2.000000 -1047821.375000 0.000000 
7061.459922 -270.159160 -376.528076 5617280.000000 5.000000 1.000000 -1047553.375000 0.000000 
6002.164023 -1048.564495 -716.001404 8017302.000000 1.000000 1.000000 -1047183.062500 0.000000 
6363.251914 -1391.849498 -190.390015 3592849.000000 5.000000 4.000000 -1047777.875000 0.000000 
6170.161094 -84.089702 -927.042496 10709293.000000 7.000000 7.000000 -1046884.687500 0.000000 
6501.478477 -1436.310405 21.135620 4382343.000000 6.000000 1.000000 -1047714.062500 0.000000 
6290.247031 -271.255352 -515.436523 4970500.000000 7.000000 5.000000 -1047651.625000 0.000000 
7288.490195 -1390.066112 -0.929199 4380318.000000 7.000000 1.000000 -1047714.437500 0.000000 
7045.693320 -1392.574810 -101.454102 2799949.000000 7.000000 7.000000 -1047821.375000 0.000000 
7040.488242 -1390.388805 -416.902771 2799950.000000 7.000000 1.000000 -1047821.375000 0.000000 
7201.749961 -312.876812 55.349365 3980626.000000 5.000000 2.000000 -1047750.750000 0.000000 
6002.430625 -299.518047 -749.274689 3983115.000000 3.000000 3.000000 -1047750.500000 0.000000 
6462.510703 -270.873516 -465.539001 3783980.000000 7.000000 3.000000 -1047766.000000 0.000000 
5861.098594 -881.739116 -108.004150 6819809.000000 7.000000 5.000000 -1047362.000000 0.000000 
6659.896445 -1390.639385 -72.084351 3591928.000000 7.000000 2.000000 -1047778.000000 0.000000 
7012.855430 -271.506450 -478.559998 7114021.000000 7.000000 4.000000 -1047315.562500 0.000000 
6069.106406 -1453.367702 -14.939209 3594183.000000 2.000000 2.000000 -1047777.687500 0.000000 
7213.420859 -269.533306 -49.647583 8611390.000000 7.000000 2.000000 -1047104.250000 0.000000 
5895.035117 -782.766826 -109.531860 6819249.000000 7.000000 2.000000 -1047362.062500 0.000000 
5821.081992 -385.633525 -992.111206 3786329.000000 5.000000 1.000000 -1047765.750000 0.000000 
7251.899375 -180.601177 53.138062 3979890.000000 7.000000 3.000000 -1047750.812500 0.000000 
6501.929648 -270.883647 -423.678711 5618610.000000 5.000000 2.000000 -1047553.375000 0.000000 
7026.427695 -1390.939891 -83.897705 2799995.000000 7.000000 3.000000 -1047821.375000 0.000000 
7027.260703 -1391.304210 -84.773560 2799995.000000 7.000000 4.000000 -1047821.375000 0.000000 
7027.651328 -1391.474712 -85.183350 2799995.000000 7.000000 5.000000 -1047821.375000 0.000000 
7040.309531 -1391.230907 -246.875610 3788439.000000 7.000000 3.000000 -1047765.437500 0.000000 
6002.139609 -434.979961 -725.531586 8014642.000000 1.000000 1.000000 -1047183.250000 0.000000 
7069.671836 -271.267559 -364.167908 4771457.000000 7.000000 4.000000 -1047673.812500 0.000000 
6292.650352 -79.992046 -994.521500 7114303.000000 7.000000 2.000000 -1047315.562500 0.000000 
6002.635703 -373.798687 -58.491211 9511940.000000 7.000000 1.000000 -1046998.187500 0.000000 
5915.557578 -1236.320415 -17.031372 4185787.000000 6.000000 3.000000 -1047732.250000 0.000000 
7025.635703 -1390.673900 -402.968506 2799996.000000 7.000000 2.000000 -1047821.375000 0.000000 
5810.543906 -954.210308 -10.596558 4579592.000000 6.000000 5.000000 -1047695.000000 0.000000 
6808.713828 -246.134746 4.699219 7114229.000000 7.000000 7.000000 -1047315.562500 0.000000 
7027.081992 -1391.306499 -404.608093 2799996.000000 7.000000 5.000000 -1047821.375000 0.000000 
7027.500937 -1391.489604 -405.082520 2799996.000000 7.000000 6.000000 -1047821.375000 0.000000 
6937.666953 -1391.715496 -319.837219 4183670.000000 7.000000 6.000000 -1047732.750000 0.000000 
5735.067344 -1094.504009 -109.765259 6821139.000000 7.000000 1.000000 -1047361.812500 0.000000 
6840.827109 -1390.498790 -265.292114 4183900.000000 7.000000 2.000000 -1047732.687500 0.000000 
5984.637656 -81.272319 -925.728607 4377472.000000 7.000000 5.000000 -1047714.812500 0.000000 
6089.464805 -1424.237194 -15.252197 3593953.000000 2.000000 1.000000 -1047777.750000 0.000000 
6002.131797 -721.573528 -693.062897 8614752.000000 1.000000 1.000000 -1047104.062500 0.000000 
6183.433555 -270.290264 -566.439880 3784625.000000 7.000000 1.000000 -1047766.000000 0.000000 
6315.569297 -1391.230205 -59.794800 3987895.000000 3.000000 1.000000 -1047749.687500 0.000000 
6052.336875 -271.471538 -67.080444 4180590.000000 7.000000 5.000000 -1047733.250000 0.000000 
6021.345664 -836.644512 -8.953857 3590780.000000 1.000000 1.000000 -1047778.125000 0.000000 
6992.776328 -1391.895305 -294.408081 3591008.000000 7.000000 7.000000 -1047778.125000 0.000000 
6002.166953 -452.780132 -581.878479 6518181.000000 1.000000 1.000000 -1047410.875000 0.000000 
7014.126914 -1392.303905 -73.652100 2800041.000000 7.000000 7.000000 -1047821.375000 0.000000 
7014.754844 -1392.579601 -74.312744 2800041.000000 7.000000 7.000000 -1047821.375000 0.000000 
6188.865195 -269.278911 -253.883789 10709921.000000 7.000000 2.000000 -1046884.625000 0.000000 
5953.338828 -81.152080 -993.215195 3783983.000000 7.000000 4.000000 -1047766.000000 0.000000 
5867.833945 -490.332866 -16.605713 4182246.000000 2.000000 1.000000 -1047733.000000 0.000000 
7011.271445 -1391.130687 -389.580200 2800042.000000 7.000000 4.000000 -1047821.375000 0.000000 
7092.472617 -209.658794 49.306396 4375857.000000 6.000000 4.000000 -1047714.875000 0.000000 
6969.377891 -272.000347 -531.649109 3782967.000000 7.000000 7.000000 -1047766.062500 0.000000 
6200.323203 -271.098125 -792.263306 4377931.000000 7.000000 4.000000 -1047714.750000 0.000000 
6375.577109 -181.620708 -2.841919 3981548.000000 7.000000 5.000000 -1047750.687500 0.000000 
6408.979453 -271.519146 -332.890381 9511101.000000 7.000000 4.000000 -1046998.250000 0.000000 
7014.052695 -1392.351604 -392.734009 2800042.000000 7.000000 7.000000 -1047821.375000 0.000000 
6277.502891 -190.284160 -16.512207 7414249.000000 7.000000 7.000000 -1047269.437500 0.000000 
6963.041953 -270.434429 -457.207275 4574026.000000 7.000000 2.000000 -1047695.687500 0.000000 
6867.154258 -1473.528698 38.349854 4184175.000000 6.000000 3.000000 -1047732.625000 0.000000 
6995.186484 -1390.707408 -56.414551 2800087.000000 7.000000 2.000000 -1047821.375000 0.000000 
6146.049766 -272.940044 -184.913208 6217739.000000 5.000000 5.000000 -1047457.437500 0.000000 
6441.856406 -1391.241008 -134.691772 3987527.000000 6.000000 3.000000 -1047749.750000 0.000000 
6002.187461 -543.914653 -667.015106 9213042.000000 1.000000 1.000000 -1047032.187500 0.000000 
5822.460898 -109.294048 -848.693604 4180271.000000 1.000000 1.000000 -1047733.312500 0.000000 
6330.097617 -270.223369 -813.224304 5918142.000000 5.000000 1.000000 -1047505.562500 0.000000 
6002.172812 -966.968730 -629.969910 5623791.000000 1.000000 1.000000 -1047552.875000 0.000000 
6002.126914 -312.968853 -626.518982 10110932.000000 1.000000 1.000000 -1046936.000000 0.000000 
6030.887656 -269.299053 -264.149170 10710061.000000 7.000000 2.000000 -1046884.625000 0.000000 
6033.617148 -272.479961 -138.668823 4773528.000000 7.000000 7.000000 -1047673.750000 0.000000 
6002.120078 -737.973613 -204.538025 8015970.000000 1.000000 1.000000 -1047183.187500 0.000000 
6995.476523 -1390.915386 -374.559875 2800088.000000 7.000000 3.000000 -1047821.375000 0.000000 
7125.230430 -270.375347 -216.945313 4968934.000000 7.000000 2.000000 -1047651.687500 0.000000 
7125.026328 -1436.113094 51.936523 4775641.000000 7.000000 2.000000 -1047673.437500 0.000000 
6787.233359 -270.146343 -582.828186 5917091.000000 5.000000 1.000000 -1047505.625000 0.000000 
6672.950156 -1391.453685 -103.997070 4776470.000000 7.000000 4.000000 -1047673.312500 0.000000 
6024.780234 -542.162456 -107.562256 6817779.000000 7.000000 6.000000 -1047362.187500 0.000000 
6963.839805 -274.049175 -273.616272 9810211.000000 7.000000 7.000000 -1046965.750000 0.000000 
6002.171836 -318.112041 -698.639099 8613072.000000 1.000000 1.000000 -1047104.187500 0.000000 
6380.473594 -271.470073 -567.741882 4970316.000000 7.000000 6.000000 -1047651.625000 0.000000 
6284.943320 -273.840557 -644.594788 9511242.000000 7.000000 7.000000 -1046998.250000 0.000000 
6750.689414 -271.524150 -755.082703 6815052.000000 6.000000 3.000000 -1047362.375000 0.000000 
6025.816367 -950.635173 -8.783691 4776379.000000 7.000000 1.000000 -1047673.312500 0.000000 
6981.256797 -1391.271190 -44.441040 2800133.000000 7.000000 3.000000 -1047821.375000 0.000000 
7258.790000 -1438.969600 58.982056 3985639.000000 6.000000 1.000000 -1047750.125000 0.000000 
6038.973594 -273.006450 -309.990723 7115700.000000 6.000000 5.000000 -1047315.500000 0.000000 
6080.364219 -528.174419 -15.492065 4577016.000000 6.000000 1.000000 -1047695.437500 0.000000 
6002.108359 -353.928813 -683.830292 8912742.000000 1.000000 1.000000 -1047068.000000 0.000000 
6984.179648 -1392.564586 -47.519043 2800133.000000 7.000000 7.000000 -1047821.375000 0.000000 
6890.711875 -1550.805301 38.976074 3592065.000000 4.000000 4.000000 -1047778.000000 0.000000 
6030.291953 -271.495220 -586.150879 4575960.000000 7.000000 5.000000 -1047695.562500 0.000000 
6061.864219 -82.688823 -940.509399 10110023.000000 7.000000 7.000000 -1046936.000000 0.000000 
7053.691367 -273.794658 -244.390991 10109811.000000 7.000000 6.000000 -1046936.000000 0.000000 
6184.972617 -273.010845 -791.101715 6516852.000000 5.000000 5.000000 -1047411.000000 0.000000 
6027.665977 -466.657695 -71.703613 5620988.000000 7.000000 7.000000 -1047553.125000 0.000000 
6002.113242 -545.849712 -490.416199 7715741.000000 1.000000 1.000000 -1047227.187500 0.000000 
6733.713828 -311.910259 31.669678 3981501.000000 4.000000 2.000000 -1047750.687500 0.000000 
5956.808555 -727.190715 -11.223389 4578212.000000 6.000000 2.000000 -1047695.250000 0.000000 
6983.483359 -1392.336010 -363.846680 2800134.000000 7.000000 7.000000 -1047821.375000 0.000000 
6002.181602 -794.918987 -802.365509 6220822.000000 1.000000 1.000000 -1047457.187500 0.000000 
6719.333945 -272.530376 -359.285522 8911551.000000 7.000000 5.000000 -1047068.062500 0.000000 
6120.217734 -270.567485 -680.164093 8912252.000000 7.000000 3.000000 -1047068.062500 0.000000 
5908.520469 -81.953228 -864.374603 4377656.000000 7.000000 7.000000 -1047714.750000 0.000000 
6822.164023 -1390.504894 -254.888977 4183946.000000 7.000000 2.000000 -1047732.687500 0.000000 
6966.244102 -1391.313610 -31.318604 2800179.000000 7.000000 4.000000 -1047821.375000 0.000000 
6828.683555 -273.945659 -622.652283 9510682.000000 7.000000 7.000000 -1046998.250000 0.000000 
6377.208945 -1391.673107 -200.101501 3592803.000000 6.000000 4.000000 -1047777.875000 0.000000 
6159.884727 -80.466045 -981.874893 4574765.000000 7.000000 2.000000 -1047695.687500 0.000000 
6816.045859 -271.654644 -495.431824 4376641.000000 7.000000 6.000000 -1047714.812500 0.000000 
6877.545859 -1390.378398 -198.174072 4776010.000000 7.000000 2.000000 -1047673.375000 0.000000 
6509.091758 -179.875835 8.811646 7413829.000000 7.000000 2.000000 -1047269.437500 0.000000 
5822.135703 -250.237163 -949.462097 9811263.000000 1.000000 1.000000 -1046965.750000 0.000000 
5938.776328 -443.165508 -17.615845 4971971.000000 7.000000 4.000000 -1047651.500000 0.000000 
6966.035117 -1391.300487 -346.931396 2800180.000000 7.000000 5.000000 -1047821.375000 0.000000 
6635.153281 -269.624004 -227.285706 7414040.000000 7.000000 1.000000 -1047269.437500 0.000000 
6738.549766 -80.442241 -935.378204 9809723.000000 7.000000 4.000000 -1046965.750000 0.000000 
6183.526328 -272.249858 -575.587585 6516851.000000 5.000000 4.000000 -1047411.000000 0.000000 
6967.707969 -1392.043499 -348.831787 2800180.000000 7.000000 7.000000 -1047821.375000 0.000000 
7254.912070 -181.592754 51.068359 3979890.000000 7.000000 6.000000 -1047750.812500 0.000000 
6247.026328 -269.933452 -746.609009 7414672.000000 7.000000 2.000000 -1047269.437500 0.000000 
6059.661094 -181.964946 -842.964600 4773070.000000 5.000000 3.000000 -1047673.750000 0.000000 
6038.024375 -270.604717 -784.927612 3784994.000000 7.000000 2.000000 -1047765.937500 0.000000 
6949.904258 -1390.720195 -16.787842 2800225.000000 7.000000 2.000000 -1047821.375000 0.000000 
6029.732383 -271.097515 -237.341125 4575959.000000 7.000000 3.000000 -1047695.562500 0.000000 
6335.841758 -271.268047 -795.324188 4575270.000000 7.000000 5.000000 -1047695.625000 0.000000 
6002.222617 -1259.351787 -792.927002 6223132.000000 1.000000 1.000000 -1047456.937500 0.000000 
6002.158164 -1208.827587 -316.465820 9814621.000000 1.000000 1.000000 -1046965.500000 0.000000 
5945.356406 -712.772930 -841.371399 4973031.000000 6.000000 3.000000 -1047651.375000 0.000000 
6035.429648 -1220.352397 -108.887939 6521889.000000 7.000000 3.000000 -1047410.312500 0.000000 
6689.821250 -1452.277904 29.489868 3987112.000000 6.000000 3.000000 -1047749.812500 0.000000 
6503.347617 -269.888530 -238.755493 7414250.000000 7.000000 2.000000 -1047269.437500 0.000000 
6211.457969 -272.810039 -254.876770 5619379.000000 5.000000 5.000000 -1047553.312500 0.000000 
5853.752891 -82.421245 -888.776611 3982196.000000 7.000000 7.000000 -1047750.625000 0.000000 
5812.031211 -1198.195995 -16.277100 3791155.000000 3.000000 2.000000 -1047765.000000 0.000000 
6002.165000 -748.743694 -507.554077 7417331.000000 1.000000 1.000000 -1047269.250000 0.000000 
6089.504844 -271.470073 -422.179382 4180499.000000 7.000000 6.000000 -1047733.250000 0.000000 
6716.611289 -269.311260 -598.088806 10110092.000000 7.000000 2.000000 -1046936.000000 0.000000 
6510.335898 -272.346050 -238.070923 7414250.000000 7.000000 5.000000 -1047269.437500 0.000000 
6553.182578 -81.523052 -961.659698 8611393.000000 7.000000 4.000000 -1047104.250000 0.000000 
6553.273398 -1391.453105 -324.234375 3592251.000000 7.000000 5.000000 -1047777.937500 0.000000 
6075.924766 -271.917827 -38.879883 4970959.000000 7.000000 5.000000 -1047651.562500 0.000000 
6430.138633 -273.679912 -284.891418 10110371.000000 7.000000 6.000000 -1046936.000000 0.000000 
6640.641562 -271.526958 -226.748901 7414040.000000 7.000000 4.000000 -1047269.437500 0.000000 
6975.371055 -1391.884685 -282.713318 3591054.000000 7.000000 6.000000 -1047778.125000 0.000000 
6670.780234 -274.123760 -585.288208 10409832.000000 7.000000 7.000000 -1046909.375000 0.000000 
6057.790000 -490.178081 -82.171021 9212760.000000 7.000000 7.000000 -1047032.187500 0.000000 
6002.405234 -376.187847 -437.361206 3587838.000000 3.000000 3.000000 -1047778.625000 0.000000 
6936.668906 -1391.468914 -5.523560 2800271.000000 7.000000 5.000000 -1047821.375000 0.000000 
5822.226523 -1437.933605 -937.441895 10115203.000000 1.000000 1.000000 -1046935.687500 0.000000 
5821.531211 -310.371807 -956.224304 3983668.000000 5.000000 2.000000 -1047750.437500 0.000000 
5961.380820 -360.282939 -840.775696 4774082.000000 5.000000 3.000000 -1047673.687500 0.000000 
6473.013633 -271.644756 -273.432007 4377331.000000 7.000000 6.000000 -1047714.812500 0.000000 
6002.210898 -884.046428 -199.448120 8016600.000000 1.000000 1.000000 -1047183.125000 0.000000 
5852.101523 -564.402812 -846.565491 4775232.000000 5.000000 2.000000 -1047673.500000 0.000000 
6790.318320 -270.694316 -739.380005 7114372.000000 7.000000 3.000000 -1047315.562500 0.000000 
6217.623984 -269.883281 -733.578491 7714132.000000 7.000000 2.000000 -1047227.312500 0.000000 
6185.808555 -1390.490001 -36.797974 3790878.000000 4.000000 1.000000 -1047765.000000 0.000000 
5826.798789 -1356.879192 -15.492676 4186615.000000 5.000000 1.000000 -1047732.125000 0.000000 
6878.113242 -270.844341 -392.026794 5617700.000000 5.000000 2.000000 -1047553.375000 0.000000 
6937.778281 -1392.044689 -320.614929 2800272.000000 7.000000 7.000000 -1047821.375000 0.000000 
6464.865195 -269.597271 -666.362000 8911832.000000 7.000000 2.000000 -1047068.062500 0.000000 
7020.089805 -272.617534 -337.368408 4771549.000000 7.000000 7.000000 -1047673.812500 0.000000 
6002.197227 -710.608989 -817.350708 5921362.000000 1.000000 1.000000 -1047505.250000 0.000000 
6962.116172 -270.038677 -456.550781 4574026.000000 7.000000 1.000000 -1047695.687500 0.000000 
5983.165000 -78.974956 -930.106506 10709433.000000 7.000000 1.000000 -1046884.687500 0.000000 
5867.537070 -862.452983 -8.751221 4579040.000000 6.000000 5.000000 -1047695.125000 0.000000 
6980.393516 -1391.919811 -460.301697 3986101.000000 7.000000 7.000000 -1047750.000000 0.000000 
7009.302695 -273.228130 -288.410217 6515240.000000 6.000000 6.000000 -1047411.062500 0.000000 
6921.864219 -1391.474407 7.404175 2800317.000000 7.000000 5.000000 -1047821.375000 0.000000 
6922.257773 -1391.651195 6.988770 2800317.000000 7.000000 6.000000 -1047821.375000 0.000000 
6156.827109 -83.879131 -944.799896 9810283.000000 7.000000 7.000000 -1046965.750000 0.000000 
5974.322227 -1361.508800 -16.338135 4383494.000000 6.000000 3.000000 -1047713.875000 0.000000 
6924.269492 -1392.555400 4.865234 2800317.000000 7.000000 7.000000 -1047821.375000 0.000000 
6919.334922 -1390.416210 -302.532776 2800318.000000 7.000000 1.000000 -1047821.375000 0.000000 
6477.182578 -1478.478801 19.160156 4382573.000000 6.000000 2.000000 -1047714.062500 0.000000 
6789.354453 -272.637798 -420.049194 4969533.000000 7.000000 7.000000 -1047651.687500 0.000000 
5900.942344 -474.941021 -843.853485 4774726.000000 5.000000 2.000000 -1047673.562500 0.000000 
6473.796836 -270.229473 -427.809021 3981825.000000 7.000000 1.000000 -1047750.625000 0.000000 
7191.796836 -1391.907299 -2.771851 3788070.000000 7.000000 6.000000 -1047765.500000 0.000000 
6992.097617 -272.916362 -251.262085 4376318.000000 7.000000 7.000000 -1047714.875000 0.000000 
6334.851523 -270.797588 -794.485107 4575270.000000 7.000000 3.000000 -1047695.625000 0.000000 
6922.939414 -1392.036815 -306.636902 2800318.000000 7.000000 7.000000 -1047821.375000 0.000000 
6923.579062 -1392.324108 -307.364624 2800318.000000 7.000000 7.000000 -1047821.375000 0.000000 
6924.219687 -1392.612102 -308.094116 2800318.000000 7.000000 7.000000 -1047821.375000 0.000000 
6002.153281 -1006.546978 -235.000977 5623999.000000 1.000000 1.000000 -1047552.812500 0.000000 
6520.260703 -272.020366 -649.152405 4970040.000000 7.000000 7.000000 -1047651.625000 0.000000 
7256.168906 -270.821025 -142.822205 5616859.000000 5.000000 2.000000 -1047553.437500 0.000000 
6920.720664 -1391.118206 -642.330200 2800319.000000 7.000000 4.000000 -1047821.375000 0.000000 
5822.255820 -1537.477603 -936.844406 10115553.000000 2.000000 2.000000 -1046935.625000 0.000000 
6103.861289 -271.928325 -369.145203 4378160.000000 7.000000 7.000000 -1047714.750000 0.000000 
7247.909141 -1465.916103 56.755127 3985777.000000 6.000000 5.000000 -1047750.062500 0.000000 
6002.309531 -284.701030 -89.688110 3785176.000000 2.000000 2.000000 -1047765.937500 0.000000 
5822.206016 -1278.460094 -944.029907 9815113.000000 1.000000 1.000000 -1046965.500000 0.000000 
7063.617148 -281.079937 49.231445 4376225.000000 6.000000 1.000000 -1047714.875000 0.000000 
5916.190391 -1028.777324 -12.041992 3789867.000000 3.000000 2.000000 -1047765.187500 0.000000 
7169.575156 -1509.823299 53.138672 2800362.000000 1.000000 1.000000 -1047821.375000 0.000000 
6002.164023 -849.907329 -801.291992 6221102.000000 1.000000 1.000000 -1047457.187500 0.000000 
6687.590781 -82.833599 -918.613297 10708873.000000 7.000000 7.000000 -1046884.687500 0.000000 
6722.602500 -273.476055 -359.057129 8911551.000000 7.000000 6.000000 -1047068.062500 0.000000 
7099.112266 -1391.889904 -366.033325 3590732.000000 7.000000 7.000000 -1047778.187500 0.000000 
6002.138633 -642.248699 -510.359802 7416841.000000 1.000000 1.000000 -1047269.312500 0.000000 
6907.639609 -1391.698497 19.727539 2800363.000000 7.000000 6.000000 -1047821.375000 0.000000 
6001.915977 -743.772686 -743.876892 4578168.000000 2.000000 1.000000 -1047695.250000 0.000000 
6001.988242 -426.930522 -451.758484 3983850.000000 3.000000 2.000000 -1047750.437500 0.000000 
6909.517539 -1392.546001 17.743652 2800363.000000 7.000000 7.000000 -1047821.375000 0.000000 
6500.400352 -273.397319 -722.343109 7713712.000000 7.000000 7.000000 -1047227.312500 0.000000 
5994.349570 -80.509258 -858.149200 4575133.000000 7.000000 2.000000 -1047695.625000 0.000000 
6146.506797 -270.347148 -203.313599 3784716.000000 7.000000 1.000000 -1047765.937500 0.000000 
6906.192344 -1391.124187 -290.475220 2800364.000000 7.000000 4.000000 -1047821.375000 0.000000 
7139.529258 -181.522075 37.845581 9510050.000000 7.000000 4.000000 -1046998.250000 0.000000 
5708.115195 -1168.394298 -108.446167 6821559.000000 7.000000 4.000000 -1047361.750000 0.000000 
6538.180625 -1391.458293 -313.534302 3592297.000000 7.000000 6.000000 -1047777.937500 0.000000 
6001.988242 -409.323345 -809.010498 3785960.000000 4.000000 3.000000 -1047765.812500 0.000000 
6013.933555 -977.917827 -11.806763 4776517.000000 7.000000 7.000000 -1047673.312500 0.000000 
6002.261680 -1337.575389 -829.297485 5326922.000000 2.000000 2.000000 -1047600.000000 0.000000 
6932.450156 -271.522808 -169.738892 7713080.000000 7.000000 4.000000 -1047227.312500 0.000000 
6082.684531 -1157.225109 -107.562744 6521469.000000 7.000000 6.000000 -1047410.375000 0.000000 
6002.174766 -949.622173 -589.986511 10712442.000000 1.000000 1.000000 -1046884.500000 0.000000 
6002.165000 -1070.190227 -387.578186 8915611.000000 1.000000 1.000000 -1047067.687500 0.000000 
6905.978477 -1391.106212 -627.360413 2800365.000000 7.000000 4.000000 -1047821.375000 0.000000 
5745.910117 -1043.295818 -108.004150 5326288.000000 7.000000 5.000000 -1047600.125000 0.000000 
6002.156211 -745.360576 -592.493408 10711742.000000 1.000000 1.000000 -1046884.562500 0.000000 
6828.775352 -1540.760799 36.434448 4184543.000000 6.000000 3.000000 -1047732.562500 0.000000 
6907.724570 -1391.894207 -629.505981 2800365.000000 7.000000 7.000000 -1047821.375000 0.000000 
5887.045859 -1142.271221 -14.678223 3988034.000000 4.000000 2.000000 -1047749.687500 0.000000 
7072.459922 -272.983745 -159.468689 4573841.000000 7.000000 7.000000 -1047695.750000 0.000000 
6767.665000 -272.978618 -199.890076 4772009.000000 7.000000 7.000000 -1047673.812500 0.000000 
5822.136680 -473.445781 -971.321503 8613983.000000 1.000000 1.000000 -1047104.125000 0.000000 
6002.191367 -491.202251 -400.806824 8913301.000000 1.000000 1.000000 -1047068.000000 0.000000 
6746.457969 -1392.761211 -318.158691 3986699.000000 6.000000 6.000000 -1047749.937500 0.000000 
6112.178672 -272.712139 -485.762573 5320690.000000 5.000000 5.000000 -1047600.687500 0.000000 
6892.079062 -1391.275615 33.472290 2800409.000000 7.000000 4.000000 -1047821.375000 0.000000 
7202.475547 -1391.017406 -147.659973 4972705.000000 7.000000 3.000000 -1047651.437500 0.000000 
6551.818320 -271.516338 -234.486206 7414180.000000 7.000000 4.000000 -1047269.437500 0.000000 
6893.338828 -1391.846813 32.139526 2800409.000000 7.000000 7.000000 -1047821.375000 0.000000 
6063.457969 -559.998149 -16.036621 4577200.000000 6.000000 4.000000 -1047695.375000 0.000000 
6002.137656 -315.737163 -81.299927 7115979.000000 1.000000 1.000000 -1047315.500000 0.000000 
6002.247031 -1217.389812 -558.794678 6521961.000000 1.000000 1.000000 -1047410.312500 0.000000 
6238.093711 -80.865093 -875.749695 3981275.000000 7.000000 3.000000 -1047750.687500 0.000000 
6891.164023 -1390.940105 -276.260620 2800410.000000 7.000000 3.000000 -1047821.375000 0.000000 
6002.250937 -1219.663005 -537.468628 6821071.000000 2.000000 2.000000 -1047361.812500 0.000000 
6002.351523 -368.174053 -392.094727 4181235.000000 2.000000 2.000000 -1047733.187500 0.000000 
6729.368125 -1507.313701 31.410400 4579406.000000 7.000000 4.000000 -1047695.062500 0.000000 
6548.068320 -82.631938 -926.756699 10409273.000000 7.000000 6.000000 -1046909.375000 0.000000 
6893.170859 -1391.849010 -278.547485 2800410.000000 7.000000 7.000000 -1047821.375000 0.000000 
6879.085898 -1391.241191 -147.618713 3788853.000000 7.000000 4.000000 -1047765.312500 0.000000 
6421.420859 -1391.923290 -138.612488 4579729.000000 6.000000 5.000000 -1047695.000000 0.000000 
6001.988242 -275.497295 -71.257935 3982975.000000 2.000000 1.000000 -1047750.562500 0.000000 
7058.668906 -1391.448101 -247.410706 4380825.000000 7.000000 5.000000 -1047714.375000 0.000000 
6650.394492 -271.131328 -223.691895 3981456.000000 7.000000 3.000000 -1047750.687500 0.000000 
6270.705039 -270.445415 -750.243988 4575408.000000 7.000000 2.000000 -1047695.625000 0.000000 
6793.922812 -272.585796 -725.102203 4574349.000000 7.000000 7.000000 -1047695.687500 0.000000 
6001.964805 -444.701641 -359.830383 4379264.000000 1.000000 1.000000 -1047714.625000 0.000000 
6654.562461 -272.916240 -391.011902 4376963.000000 7.000000 7.000000 -1047714.812500 0.000000 
6892.686484 -1391.708202 -614.163696 2800411.000000 7.000000 7.000000 -1047821.375000 0.000000 
5864.795859 -303.505840 -846.325592 4576513.000000 3.000000 2.000000 -1047695.500000 0.000000 
6893.480430 -1392.067913 -615.139893 2800411.000000 7.000000 7.000000 -1047821.375000 0.000000 
6448.217734 -181.263652 -843.596100 4574626.000000 4.000000 4.000000 -1047695.687500 0.000000 
5977.062461 -459.725200 -18.181641 4379401.000000 6.000000 4.000000 -1047714.625000 0.000000 
5914.012656 -450.421489 -843.120392 4774588.000000 5.000000 2.000000 -1047673.625000 0.000000 
6884.391562 -1394.388408 38.895996 2800455.000000 1.000000 1.000000 -1047821.375000 0.000000 
6851.939414 -1391.903087 -40.428589 3986422.000000 7.000000 5.000000 -1047749.937500 0.000000 
6243.830039 -271.296978 -200.056030 4180130.000000 7.000000 5.000000 -1047733.312500 0.000000 
6774.203086 -81.669658 -883.434509 4178061.000000 7.000000 6.000000 -1047733.437500 0.000000 
6916.415000 -1392.444103 -170.955627 3788761.000000 7.000000 7.000000 -1047765.312500 0.000000 
6086.043906 -79.741924 -992.101700 7414043.000000 7.000000 1.000000 -1047269.437500 0.000000 
6289.949180 -80.218730 -956.768600 3783200.000000 7.000000 1.000000 -1047766.062500 0.000000 
5822.282187 -1608.466499 -985.729507 7421533.000000 2.000000 2.000000 -1047268.875000 0.000000 
6878.655234 -1391.857708 -264.909973 2800456.000000 7.000000 7.000000 -1047821.375000 0.000000 
5822.173789 -1054.252788 -962.267593 8915823.000000 1.000000 1.000000 -1047067.687500 0.000000 
6514.730430 -272.938701 -545.777771 4574901.000000 7.000000 7.000000 -1047695.625000 0.000000 
6102.179648 -522.743145 -171.814697 8314310.000000 1.000000 1.000000 -1047141.375000 0.000000 
6875.221641 -1390.374187 -595.825012 2800457.000000 7.000000 1.000000 -1047821.375000 0.000000 
6829.545859 -273.950542 -305.656982 9510681.000000 7.000000 7.000000 -1046998.250000 0.000000 
6751.604453 -271.511943 -279.627014 6815050.000000 6.000000 3.000000 -1047362.375000 0.000000 
6171.974570 -272.490947 -327.526794 4575637.000000 7.000000 7.000000 -1047695.562500 0.000000 
5838.274375 -899.265483 -108.370239 5325168.000000 7.000000 4.000000 -1047600.250000 0.000000 
6216.503867 -80.566509 -856.285309 3981321.000000 7.000000 2.000000 -1047750.687500 0.000000 
6878.131797 -1391.698314 -599.406799 2800457.000000 7.000000 7.000000 -1047821.375000 0.000000 
6097.000937 -938.390178 -9.856445 4183855.000000 6.000000 4.000000 -1047732.687500 0.000000 
6772.824180 -198.834453 7.856079 5617558.000000 7.000000 7.000000 -1047553.375000 0.000000 
6668.526328 -81.498760 -880.730103 3980400.000000 7.000000 5.000000 -1047750.750000 0.000000 
6819.888633 -1558.027301 35.364746 4184635.000000 6.000000 5.000000 -1047732.562500 0.000000 
6661.751914 -136.350688 -844.698395 4771643.000000 6.000000 2.000000 -1047673.812500 0.000000 
6881.934531 -1399.871013 38.781860 2800501.000000 1.000000 1.000000 -1047821.375000 0.000000 
6450.821250 -273.640239 -399.638611 8612301.000000 7.000000 7.000000 -1047104.250000 0.000000 
6002.009727 -453.890117 -477.806030 3786235.000000 3.000000 2.000000 -1047765.750000 0.000000 
6862.184531 -1390.931499 -249.031677 2800502.000000 7.000000 3.000000 -1047821.375000 0.000000 
6099.836875 -497.740947 -16.989624 4576832.000000 7.000000 2.000000 -1047695.437500 0.000000 
6867.655234 -272.962627 -529.378418 4376549.000000 7.000000 7.000000 -1047714.812500 0.000000 
6317.250937 -272.547344 -782.956512 4575316.000000 7.000000 7.000000 -1047695.625000 0.000000 
6546.611289 -79.645244 -961.774200 8611393.000000 7.000000 2.000000 -1047104.250000 0.000000 
6556.361289 -270.245342 -419.140930 5618470.000000 5.000000 1.000000 -1047553.375000 0.000000 
7196.204062 -1391.921794 -106.347900 4183071.000000 7.000000 5.000000 -1047732.875000 0.000000 
6649.665000 -181.522075 24.530762 7413619.000000 7.000000 4.000000 -1047269.437500 0.000000 
6014.010703 -273.230571 -42.274658 7415089.000000 6.000000 6.000000 -1047269.437500 0.000000 
6658.960898 -80.846904 -932.946304 3782463.000000 7.000000 3.000000 -1047766.125000 0.000000 
7086.586875 -259.625347 48.794556 3782689.000000 4.000000 4.000000 -1047766.125000 0.000000 
6318.650352 -270.301982 -345.740723 3784302.000000 7.000000 1.000000 -1047766.000000 0.000000 
6671.691367 -271.508525 -758.179199 6815192.000000 5.000000 3.000000 -1047362.375000 0.000000 
5904.769492 -581.151348 -15.155029 4380183.000000 5.000000 2.000000 -1047714.500000 0.000000 
6863.238242 -1391.490886 -584.221924 2800503.000000 7.000000 6.000000 -1047821.375000 0.000000 
6465.134727 -270.497295 -161.633972 4574992.000000 7.000000 2.000000 -1047695.625000 0.000000 
6379.442344 -79.488750 -947.043106 9510403.000000 7.000000 2.000000 -1046998.250000 0.000000 
6858.786094 -271.042949 -724.239105 3981043.000000 7.000000 4.000000 -1047750.687500 0.000000 
6865.162070 -1392.369213 -586.590088 2800503.000000 7.000000 7.000000 -1047821.375000 0.000000 
6824.312461 -272.415508 -723.786102 7413762.000000 7.000000 5.000000 -1047269.437500 0.000000 
7159.123984 -1533.450695 52.611084 2800546.000000 1.000000 1.000000 -1047821.375000 0.000000 
5822.151328 -398.404399 -966.018402 8913163.000000 1.000000 1.000000 -1047068.000000 0.000000 
6381.698203 -272.524272 -460.696106 4575177.000000 7.000000 7.000000 -1047695.625000 0.000000 
6847.363242 -1390.711589 -235.024475 2800548.000000 7.000000 2.000000 -1047821.375000 0.000000 
5822.146445 -376.724468 -994.491592 7415933.000000 1.000000 1.000000 -1047269.375000 0.000000 
6194.405234 -270.493145 -231.009399 4773160.000000 7.000000 2.000000 -1047673.750000 0.000000 
6800.367148 -1391.951793 22.535645 4973533.000000 7.000000 6.000000 -1047651.312500 0.000000 
6849.066367 -1391.492412 -236.970276 2800548.000000 7.000000 6.000000 -1047821.375000 0.000000 
6002.163047 -803.319011 -614.541382 5921851.000000 1.000000 1.000000 -1047505.250000 0.000000 
5822.194297 -604.953350 -852.342499 5323562.000000 1.000000 1.000000 -1047600.500000 0.000000 
7247.747031 -1391.429485 18.103149 4380410.000000 7.000000 5.000000 -1047714.437500 0.000000 
6298.914023 -272.988750 -380.031616 6217390.000000 5.000000 5.000000 -1047457.437500 0.000000 
5822.393516 -417.161113 -860.937897 4577157.000000 2.000000 2.000000 -1047695.375000 0.000000 
6846.476523 -1390.383007 -566.723877 2800549.000000 7.000000 1.000000 -1047821.375000 0.000000 
5992.213828 -674.906597 -13.431519 4577890.000000 6.000000 5.000000 -1047695.312500 0.000000 
6780.444297 -1391.906505 -0.377930 3986606.000000 6.000000 5.000000 -1047749.937500 0.000000 
5997.991172 -958.336223 -10.574951 3986746.000000 4.000000 4.000000 -1047749.875000 0.000000 
6848.441367 -1391.284099 -569.145874 2800549.000000 7.000000 5.000000 -1047821.375000 0.000000 
5976.371055 -303.318950 -45.158691 7415299.000000 7.000000 3.000000 -1047269.375000 0.000000 
6139.402305 -80.778545 -966.636093 4574811.000000 7.000000 3.000000 -1047695.625000 0.000000 
6002.174766 -1310.801403 -534.588928 6821491.000000 1.000000 1.000000 -1047361.750000 0.000000 
6056.701133 -1392.904613 -133.351929 6223619.000000 5.000000 5.000000 -1047456.875000 0.000000 
6521.236289 -270.785625 -105.239746 6516149.000000 6.000000 2.000000 -1047411.062500 0.000000 
6851.414023 -1392.646587 -572.807678 2800549.000000 7.000000 7.000000 -1047821.375000 0.000000 
6156.509727 -271.527080 -482.176514 5320550.000000 5.000000 3.000000 -1047600.750000 0.000000 
6252.408164 -273.038066 -134.438110 6516709.000000 5.000000 5.000000 -1047411.000000 0.000000 
5866.509727 -1174.713115 -15.488525 3988264.000000 4.000000 2.000000 -1047749.625000 0.000000 
6937.462852 -1391.462688 27.867188 4183669.000000 7.000000 4.000000 -1047732.750000 0.000000 
6524.847617 -1193.103008 -994.572906 6520563.000000 5.000000 5.000000 -1047410.500000 0.000000 
6381.801719 -271.476055 -398.569519 3784164.000000 7.000000 5.000000 -1047766.000000 0.000000 
6704.036094 -271.337993 -667.557892 3783474.000000 7.000000 5.000000 -1047766.062500 0.000000 
6142.092734 -1390.524700 -35.927246 3593585.000000 4.000000 1.000000 -1047777.750000 0.000000 
6835.239219 -1391.689891 -224.091919 2800594.000000 7.000000 7.000000 -1047821.375000 0.000000 
6002.339805 -473.138286 -370.369690 4379402.000000 2.000000 2.000000 -1047714.625000 0.000000 
6836.604453 -1392.317699 -225.651489 2800594.000000 7.000000 7.000000 -1047821.375000 0.000000 
6253.516562 -173.763164 -842.268311 4970179.000000 6.000000 1.000000 -1047651.625000 0.000000 
5691.346641 -1417.717403 -15.405151 3990058.000000 2.000000 2.000000 -1047749.312500 0.000000 
