ply
format ascii 1.0
comment Created by CloudCompare v2.12 alpha
comment Created 6/6/2021 12:45 AM
obj_info Generated by CloudCompare!
element vertex 501
property double x
property double y
property double z
property float scalar_fullwaveIndex
property float scalar_NumberOfReturns
property float scalar_ReturnNumber
property float scalar_GpsTime
property float scalar_Intensity
end_header
-6913.682595 -333.092876 50.399658 3114810.000000 7.000000 5.000000 -727066.312500 0.000000 
-5864.613687 -271.527080 -309.072998 10314990.000000 1.000000 1.000000 -726327.875000 5.000000 
-6679.516091 -271.564434 -641.230804 9934067.000000 1.000000 1.000000 -726369.187500 3.000000 
-6136.562295 -1497.057201 12.376343 2716404.000000 7.000000 3.000000 -727095.437500 0.000000 
-6454.258706 -277.852642 29.184570 3313163.000000 7.000000 1.000000 -727052.000000 0.000000 
-6589.424600 -271.527446 -417.387878 10321661.000000 1.000000 1.000000 -726327.562500 4.000000 
-5798.075112 -1170.743511 -710.336914 1928237.000000 1.000000 1.000000 -727191.062500 0.000000 
-5797.960854 -913.137371 -426.189087 9731160.000000 5.000000 3.000000 -726392.000000 0.000000 
-5751.486855 -570.244365 -108.846069 8562529.000000 7.000000 1.000000 -726551.812500 0.000000 
-5798.078042 -1128.242595 -712.698700 1928375.000000 1.000000 1.000000 -727191.000000 0.000000 
-6550.822610 -271.516582 -690.412109 10515185.000000 1.000000 1.000000 -726308.625000 5.000000 
-5798.281899 -1327.812114 -808.852997 8559819.000000 3.000000 3.000000 -726552.250000 0.000000 
-6419.139810 -232.822490 27.309326 3708764.000000 7.000000 1.000000 -727024.000000 0.000000 
-5798.706460 -729.125408 -482.739929 10120136.000000 7.000000 7.000000 -726347.812500 0.000000 
-6015.637368 -271.043193 -49.619263 7585674.000000 5.000000 2.000000 -726708.500000 0.000000 
-6751.927896 -270.289897 -274.235291 6607432.000000 7.000000 2.000000 -726845.000000 0.000000 
-6428.371316 -314.541729 25.371948 4456748.000000 6.000000 6.000000 -726978.500000 0.000000 
-5898.043618 -1036.718425 33.315918 1928603.000000 1.000000 1.000000 -727191.000000 0.000000 
-6654.020211 -1531.241497 -846.137512 3505538.000000 7.000000 7.000000 -727040.062500 0.000000 
-6703.578805 -271.585430 -59.830566 9934247.000000 1.000000 1.000000 -726369.187500 2.000000 
-5618.169229 -1051.668987 -893.280609 7189159.000000 2.000000 2.000000 -726775.562500 0.000000 
-5702.075723 -814.159282 -108.409058 9536164.000000 7.000000 2.000000 -726416.375000 0.000000 
-5579.203774 -1183.940197 -14.770142 5429006.000000 6.000000 1.000000 -726929.812500 0.000000 
-6422.874124 -1394.596813 25.576172 3506318.000000 7.000000 6.000000 -727040.000000 0.000000 
-5952.775552 -271.643657 -355.112000 8760238.000000 1.000000 1.000000 -726521.187500 0.000000 
-6319.905923 -123.307598 -845.742706 5630211.000000 6.000000 2.000000 -726917.437500 0.000000 
-5804.139199 -1133.827495 -14.818237 3508159.000000 7.000000 5.000000 -727039.750000 0.000000 
-6946.522500 -1391.583507 -25.525757 6016101.000000 7.000000 5.000000 -726892.312500 0.000000 
-5778.236367 -495.244365 -103.931763 10120179.000000 1.000000 1.000000 -726347.812500 4.000000 
-6908.911401 -1391.274913 -147.609192 6407515.000000 7.000000 4.000000 -726863.875000 0.000000 
-6032.413247 -1473.076503 -142.918274 3111408.000000 7.000000 2.000000 -727067.000000 0.000000 
-5898.083291 -863.597209 25.581421 1929155.000000 1.000000 1.000000 -727190.875000 0.000000 
-5697.442910 -819.080303 -107.616333 9536118.000000 7.000000 6.000000 -726416.375000 0.000000 
-5990.353799 -271.582744 -245.374084 9734332.000000 1.000000 1.000000 -726391.687500 3.000000 
-5795.103921 -830.492717 -108.248535 8757017.000000 7.000000 3.000000 -726521.687500 0.000000 
-5798.763345 -1198.224102 -207.058289 9730607.000000 5.000000 5.000000 -726392.125000 0.000000 
-6625.948586 -271.503154 -564.883972 8175764.000000 5.000000 3.000000 -726610.687500 0.000000 
-5854.569009 -1302.784313 -17.880737 3507331.000000 7.000000 5.000000 -727039.875000 0.000000 
-5898.216836 -1042.114482 11.360474 5820695.000000 2.000000 2.000000 -726904.500000 0.000000 
-6316.542275 -1461.475093 20.385132 5819314.000000 6.000000 5.000000 -726904.937500 0.000000 
-7062.983399 -306.599468 57.943604 6020747.000000 7.000000 5.000000 -726891.375000 0.000000 
-5652.061563 -1033.650310 -107.604004 10507546.000000 7.000000 6.000000 -726309.125000 0.000000 
-5641.787026 -1266.935802 -845.833008 3310177.000000 6.000000 1.000000 -727052.687500 0.000000 
-5797.935708 -303.726543 -506.871826 9538420.000000 4.000000 3.000000 -726416.000000 0.000000 
-5798.218545 -1159.171306 -414.848816 8560415.000000 2.000000 2.000000 -726552.187500 0.000000 
-6105.249673 -1470.898906 -759.688995 4060737.000000 7.000000 7.000000 -727001.625000 0.000000 
-6919.011804 -271.616313 -134.486816 9741140.000000 1.000000 1.000000 -726391.375000 1.000000 
-5798.139199 -273.117534 -731.974915 8954544.000000 2.000000 2.000000 -726494.062500 0.000000 
-6375.265481 -271.504741 -690.340515 10901079.000000 1.000000 1.000000 -726266.250000 5.000000 
-6936.645806 -352.708721 -247.521973 1929937.000000 7.000000 4.000000 -727190.750000 0.000000 
-6344.378274 -271.550762 -687.150604 10319455.000000 1.000000 1.000000 -726327.625000 5.000000 
-6066.009072 -1484.574901 8.494751 4256051.000000 4.000000 2.000000 -726990.625000 0.000000 
-5987.988687 -271.573101 -56.686035 8955644.000000 1.000000 1.000000 -726494.000000 1.000000 
-6670.879891 -270.926250 -302.303223 6802978.000000 7.000000 3.000000 -726825.125000 0.000000 
-6709.913094 -1443.128002 41.004150 6994520.000000 7.000000 3.000000 -726800.812500 0.000000 
-5797.168374 -431.077251 -66.279297 7584386.000000 7.000000 5.000000 -726708.562500 0.000000 
-6123.587502 -271.527935 -568.021301 10511182.000000 1.000000 1.000000 -726308.812500 5.000000 
-6657.574288 -272.326396 -562.215088 8175856.000000 5.000000 5.000000 -726610.687500 0.000000 
-6421.514810 -271.523052 -206.728516 7193986.000000 5.000000 3.000000 -726775.062500 0.000000 
-5797.469644 -445.512187 -718.351105 6409635.000000 3.000000 1.000000 -726863.500000 0.000000 
-5791.160195 -1459.492000 -839.101196 4256376.000000 3.000000 3.000000 -726990.625000 0.000000 
-5628.360757 -1028.545818 -108.228516 10507362.000000 7.000000 3.000000 -726309.125000 0.000000 
-5841.570962 -166.509746 -842.803802 5629844.000000 5.000000 1.000000 -726917.500000 0.000000 
-5680.397988 -1448.261302 -15.218018 6013803.000000 7.000000 6.000000 -726893.000000 0.000000 
-6292.792275 -242.534893 -9.950684 10125146.000000 4.000000 3.000000 -726347.500000 0.000000 
-6720.629708 -1473.107708 -502.226013 3505721.000000 7.000000 2.000000 -727040.062500 0.000000 
-6542.914102 -271.593120 -293.847595 9543893.000000 1.000000 1.000000 -726415.500000 1.000000 
-6160.271401 -155.172710 -844.680511 6216113.000000 5.000000 3.000000 -726877.875000 0.000000 
-5644.183633 -1296.632305 -17.895142 4452564.000000 5.000000 3.000000 -726979.500000 0.000000 
-6810.159707 -270.938335 -424.402588 7391188.000000 5.000000 2.000000 -726742.500000 0.000000 
-5894.776040 -272.540752 -311.927429 6997191.000000 7.000000 7.000000 -726800.437500 0.000000 
-6037.933633 -1522.276805 7.029541 6209716.000000 6.000000 3.000000 -726879.437500 0.000000 
-6318.726174 -271.527812 -39.905396 10706770.000000 1.000000 1.000000 -726291.125000 4.000000 
-5898.201455 -935.544170 48.526978 2916183.000000 1.000000 1.000000 -727081.125000 0.000000 
-6002.340981 -222.852764 -23.618774 10897578.000000 3.000000 1.000000 -726266.437500 0.000000 
-5897.860513 -938.402996 -4.027710 4063587.000000 2.000000 1.000000 -727001.000000 0.000000 
-6542.808206 -271.512554 -285.818787 10321246.000000 1.000000 1.000000 -726327.562500 4.000000 
-5930.940225 -81.557720 -940.525406 9734475.000000 1.000000 1.000000 -726391.687500 4.000000 
-5798.254800 -1272.811901 -631.348511 3866709.000000 2.000000 2.000000 -727014.500000 0.000000 
-5932.654946 -271.548442 -560.207825 10121838.000000 1.000000 1.000000 -726347.687500 5.000000 
-6138.618630 -1491.605800 -839.281006 3865191.000000 5.000000 2.000000 -727014.687500 0.000000 
-5737.614541 -397.665264 -16.948242 4066439.000000 7.000000 5.000000 -727000.312500 0.000000 
-6843.331201 -271.580059 -265.013611 10323868.000000 1.000000 1.000000 -726327.375000 3.000000 
-5797.901772 -1272.243389 -303.621094 7972995.000000 1.000000 1.000000 -726642.625000 0.000000 
-5646.069985 -1032.941875 -107.616699 10507500.000000 7.000000 6.000000 -726309.125000 0.000000 
-6052.582559 -272.450054 -422.385681 6215422.000000 7.000000 7.000000 -726878.000000 0.000000 
-6686.738595 -352.445903 -188.203491 1930121.000000 7.000000 5.000000 -727190.687500 0.000000 
-5797.951699 -869.236492 -589.348816 9731253.000000 5.000000 3.000000 -726392.000000 0.000000 
-5706.499307 -1034.864116 -108.720703 10507960.000000 7.000000 1.000000 -726309.062500 0.000000 
-6305.210427 -271.554424 -27.526733 10900430.000000 1.000000 1.000000 -726266.250000 4.000000 
-5713.007974 -808.970073 -108.719238 9536256.000000 7.000000 1.000000 -726416.312500 0.000000 
-5888.861978 -271.498760 -174.760681 10508971.000000 1.000000 1.000000 -726308.937500 4.000000 
-5798.156045 -691.713970 -489.981689 7387186.000000 1.000000 1.000000 -726742.750000 0.000000 
-5617.167275 -953.868206 -898.147507 9924179.000000 7.000000 1.000000 -726370.000000 0.000000 
-5797.909219 -324.577861 -748.601196 9149216.000000 2.000000 1.000000 -726466.687500 0.000000 
-6642.191689 -1392.202007 -53.898438 5428958.000000 7.000000 7.000000 -726929.812500 0.000000 
-6210.670327 -1473.529293 -837.988312 2913839.000000 7.000000 3.000000 -727081.437500 0.000000 
-5798.176431 -558.544048 -708.725586 8953302.000000 2.000000 2.000000 -726494.187500 0.000000 
-6636.384591 -349.670757 -176.409607 1930167.000000 7.000000 7.000000 -727190.687500 0.000000 
-5797.887246 -752.418804 -490.255615 8757341.000000 2.000000 1.000000 -726521.625000 0.000000 
-5862.680093 -411.584087 -62.486450 8368225.000000 7.000000 5.000000 -726580.625000 0.000000 
-6294.135476 -106.115337 -847.250488 5825665.000000 6.000000 4.000000 -726903.500000 0.000000 
-6491.231118 -81.533184 -944.023300 10127361.000000 1.000000 1.000000 -726347.375000 5.000000 
-7047.058900 -1479.101100 57.499390 5428911.000000 7.000000 4.000000 -726929.812500 0.000000 
-5617.868081 -1430.816494 -984.181595 7579974.000000 2.000000 1.000000 -726709.187500 0.000000 
-6100.992227 -256.317363 -20.654785 10123398.000000 2.000000 2.000000 -726347.562500 0.000000 
-6199.857705 -271.539165 -294.919495 10899466.000000 1.000000 1.000000 -726266.312500 4.000000 
-5618.194863 -187.373516 -923.911606 9343107.000000 3.000000 3.000000 -726441.562500 0.000000 
-6605.267587 -306.359355 36.517456 5433972.000000 6.000000 1.000000 -726928.875000 0.000000 
-6419.851479 -1425.859905 25.880249 5624090.000000 6.000000 4.000000 -726919.437500 0.000000 
-6512.249307 -271.701396 -284.910522 8762860.000000 2.000000 2.000000 -726521.062500 0.000000 
-5656.938760 -1108.889324 -106.840698 7973086.000000 7.000000 7.000000 -726642.625000 0.000000 
-6606.242593 -81.425029 -863.976410 8959743.000000 2.000000 1.000000 -726493.875000 0.000000 
-5798.794839 -1407.027004 -690.940308 9730242.000000 5.000000 5.000000 -726392.250000 0.000000 
-5896.898843 -81.548931 -908.599792 9150965.000000 1.000000 1.000000 -726466.562500 1.000000 
-6275.406472 -182.171611 13.443115 6607110.000000 7.000000 7.000000 -726845.062500 0.000000 
-5617.895303 -447.462261 -863.809387 6213952.000000 3.000000 2.000000 -726878.187500 0.000000 
-5797.323892 -440.774272 -220.984619 9732262.000000 5.000000 1.000000 -726391.875000 0.000000 
-6390.917886 -270.211528 -560.879578 5824928.000000 7.000000 3.000000 -726903.562500 0.000000 
-5618.116250 -798.728374 -987.329300 7386268.000000 1.000000 1.000000 -726742.937500 0.000000 
-5867.607461 -805.189312 -9.881348 4064277.000000 6.000000 4.000000 -727000.812500 0.000000 
-6450.506509 -351.483623 -132.237610 1930305.000000 7.000000 5.000000 -727190.625000 0.000000 
-6982.964799 -271.487285 -175.719727 10906779.000000 1.000000 1.000000 -726265.687500 4.000000 
-5798.284097 -846.262126 -256.156677 9536763.000000 5.000000 4.000000 -726416.250000 0.000000 
-6307.075173 -271.550518 -388.982971 9931121.000000 1.000000 1.000000 -726369.375000 3.000000 
-6113.456094 -271.598491 -208.705078 8956335.000000 1.000000 1.000000 -726494.000000 0.000000 
-6385.618630 -353.236553 -116.763794 1930351.000000 7.000000 2.000000 -727190.625000 0.000000 
-5533.063271 -1467.747493 -17.276978 3309393.000000 7.000000 2.000000 -727052.812500 0.000000 
-5797.234536 -1020.667278 -717.702911 9536306.000000 5.000000 1.000000 -726416.312500 0.000000 
-6392.193398 -351.477153 -118.420410 1930351.000000 7.000000 5.000000 -727190.625000 0.000000 
-5927.856851 -270.645122 -13.665405 4457577.000000 3.000000 3.000000 -726978.187500 0.000000 
-7022.330697 -350.378154 -68.846802 2719623.000000 7.000000 7.000000 -727094.875000 0.000000 
-5797.881021 -1250.820598 -783.673096 8168865.000000 2.000000 1.000000 -726611.312500 0.000000 
-6326.817727 -353.543071 -102.817627 1930397.000000 7.000000 1.000000 -727190.625000 0.000000 
-5848.001870 -272.481548 -508.883789 7389026.000000 5.000000 5.000000 -726742.625000 0.000000 
-5681.718301 -1442.857494 -844.395386 3309349.000000 6.000000 2.000000 -727052.812500 0.000000 
-6822.174691 -271.686138 46.264648 6607523.000000 7.000000 4.000000 -726845.000000 0.000000 
-5929.251016 -1538.537403 -842.178894 3111226.000000 7.000000 5.000000 -727067.000000 0.000000 
-5797.289834 -738.458721 -321.963379 9925877.000000 5.000000 1.000000 -726369.687500 0.000000 
-5797.604409 -654.400005 -263.361084 9342689.000000 3.000000 1.000000 -726441.625000 0.000000 
-6310.574502 -188.380352 -841.556885 5629889.000000 6.000000 1.000000 -726917.437500 0.000000 
-6269.825112 -353.532939 -89.321655 1930443.000000 7.000000 1.000000 -727190.562500 0.000000 
-6369.632119 -259.466655 -7.373291 9542787.000000 6.000000 4.000000 -726415.562500 0.000000 
-6476.929910 -1662.885100 -981.900604 4254949.000000 7.000000 3.000000 -726990.750000 0.000000 
-5617.922769 -522.051372 -882.898285 8952383.000000 3.000000 2.000000 -726494.375000 0.000000 
-6416.825601 -271.510234 -241.109497 7586687.000000 5.000000 3.000000 -726708.437500 0.000000 
-5798.739297 -1178.212413 -361.972229 9535936.000000 5.000000 5.000000 -726416.375000 0.000000 
-5790.551675 -1367.400493 -16.575684 6601130.000000 7.000000 5.000000 -726846.000000 0.000000 
-5897.564736 -1126.081707 -126.552490 9146867.000000 3.000000 1.000000 -726467.062500 0.000000 
-6902.510095 -271.648906 -327.005127 9155654.000000 1.000000 1.000000 -726466.312500 0.000000 
-6322.177590 -227.789531 -7.152466 7586640.000000 7.000000 7.000000 -726708.437500 0.000000 
-5826.018350 -270.071270 -632.105225 6997054.000000 7.000000 1.000000 -726800.437500 0.000000 
-6272.251626 -1560.117900 -843.831787 2716084.000000 7.000000 6.000000 -727095.437500 0.000000 
-7031.169396 -1524.939205 55.239014 6603060.000000 7.000000 7.000000 -726845.500000 0.000000 
-6224.021279 -350.643047 -78.643066 1930489.000000 7.000000 6.000000 -727190.562500 0.000000 
-5898.041543 -877.484722 146.409668 4845127.000000 1.000000 1.000000 -726958.375000 0.000000 
-5904.056436 -272.016094 -737.260498 7192884.000000 5.000000 4.000000 -726775.125000 0.000000 
-7085.270600 -1503.357006 58.651245 3505305.000000 7.000000 6.000000 -727040.062500 0.000000 
-6255.486672 -271.510723 -814.802185 10899976.000000 1.000000 1.000000 -726266.312500 5.000000 
-6169.167581 -1191.771099 -997.956406 8170476.000000 3.000000 3.000000 -726611.062500 0.000000 
-5607.265298 -1013.040996 -108.736938 9924036.000000 7.000000 1.000000 -726370.062500 0.000000 
-5617.411782 -361.703960 -934.459198 6409728.000000 3.000000 1.000000 -726863.500000 0.000000 
-5770.060220 -81.481548 -910.450302 6997745.000000 7.000000 6.000000 -726800.375000 0.000000 
-6746.051888 -271.640117 -554.056885 9350143.000000 1.000000 1.000000 -726441.125000 1.000000 
-5991.150186 -272.574687 -629.986694 6801784.000000 7.000000 7.000000 -726825.187500 0.000000 
-6732.905099 -271.070049 -556.020020 8176086.000000 5.000000 2.000000 -726610.687500 0.000000 
-6103.129983 -353.327495 -49.883057 1930581.000000 7.000000 2.000000 -727190.562500 0.000000 
-6592.289712 -271.478740 -693.369507 10903103.000000 1.000000 1.000000 -726266.125000 5.000000 
-5668.171548 -670.989299 -11.987427 5041502.000000 4.000000 1.000000 -726948.875000 0.000000 
-6129.254312 -271.505474 -734.809692 7389717.000000 5.000000 3.000000 -726742.562500 0.000000 
-6109.702798 -351.516826 -51.542358 1930581.000000 7.000000 6.000000 -727190.562500 0.000000 
-7063.545701 -306.698345 57.629761 6020747.000000 7.000000 6.000000 -726891.375000 0.000000 
-6823.242013 -270.877666 -251.945923 6411886.000000 7.000000 4.000000 -726863.250000 0.000000 
-6555.574990 -352.606548 -239.366516 3869650.000000 7.000000 2.000000 -727013.750000 0.000000 
-6047.925088 -353.485698 -36.817139 1930627.000000 7.000000 1.000000 -727190.500000 0.000000 
-6174.790627 -1607.231300 -846.004791 3864593.000000 5.000000 4.000000 -727014.750000 0.000000 
-5863.888711 -1238.439006 -17.124756 6601820.000000 7.000000 4.000000 -726845.750000 0.000000 
-6814.384103 -240.791851 17.042603 9155376.000000 7.000000 7.000000 -726466.375000 0.000000 
-5797.950845 -475.091045 -790.767090 9926340.000000 5.000000 3.000000 -726369.625000 0.000000 
-6056.008706 -271.489849 -818.164703 10316788.000000 1.000000 1.000000 -726327.812500 5.000000 
-5971.316934 -95.616558 -846.451599 6607021.000000 5.000000 1.000000 -726845.062500 0.000000 
-5797.588296 -733.386821 -380.867188 9147604.000000 3.000000 1.000000 -726466.875000 0.000000 
-5928.203042 -1490.171901 -20.544800 6405262.000000 1.000000 1.000000 -726864.500000 0.000000 
-5617.928018 -1431.290096 -887.019897 2914484.000000 2.000000 1.000000 -727081.375000 0.000000 
-5668.205239 -1099.292583 -13.593628 5039156.000000 4.000000 2.000000 -726949.812500 0.000000 
-5996.991006 -352.616191 -24.824951 1930673.000000 7.000000 3.000000 -727190.500000 0.000000 
-6717.338906 -271.072734 -557.317383 8176040.000000 5.000000 2.000000 -726610.687500 0.000000 
-6001.080972 -351.476543 -25.858521 1930673.000000 7.000000 5.000000 -727190.500000 0.000000 
-6127.485696 -270.494609 -734.937897 7389717.000000 5.000000 1.000000 -726742.562500 0.000000 
-5894.017251 -1471.592006 -555.424927 4256237.000000 7.000000 6.000000 -726990.625000 0.000000 
-6142.534219 -1533.217601 12.266235 2716266.000000 7.000000 4.000000 -727095.437500 0.000000 
-5882.378091 -529.501812 -16.186523 6213949.000000 7.000000 3.000000 -726878.187500 0.000000 
-5797.536416 -1249.861888 -433.979309 8755501.000000 3.000000 1.000000 -726522.062500 0.000000 
-5960.646646 -271.508525 -806.802307 9928180.000000 1.000000 1.000000 -726369.500000 4.000000 
-6957.423303 -1496.745204 52.546021 2715897.000000 7.000000 5.000000 -727095.500000 0.000000 
-5797.948892 -378.559307 -800.280487 9926524.000000 5.000000 3.000000 -726369.625000 0.000000 
-5797.351357 -376.462383 -534.374084 9926522.000000 5.000000 1.000000 -726369.625000 0.000000 
-5969.049355 -271.502178 -689.451691 10703509.000000 1.000000 1.000000 -726291.312500 5.000000 
-5601.565591 -1034.359722 -12.551270 5429834.000000 6.000000 5.000000 -726929.625000 0.000000 
-5610.025674 -967.694622 -11.408813 5430202.000000 5.000000 5.000000 -726929.562500 0.000000 
-6074.381997 -270.796855 7.656494 3870846.000000 6.000000 6.000000 -727013.437500 0.000000 
-5797.938027 -683.655071 -388.485291 9147788.000000 3.000000 2.000000 -726466.875000 0.000000 
-6631.772897 -353.119854 -243.345825 3510274.000000 7.000000 1.000000 -727039.312500 0.000000 
-5898.117959 -1011.960186 64.231323 4258581.000000 1.000000 1.000000 -726990.062500 0.000000 
-5699.336831 -1292.869609 -844.724091 4062072.000000 4.000000 4.000000 -727001.375000 0.000000 
-5783.679849 -492.390239 -94.338989 9148430.000000 1.000000 1.000000 -726466.750000 1.000000 
-6212.929177 -271.536846 -532.062317 9930340.000000 1.000000 1.000000 -726369.375000 4.000000 
-5928.071694 -222.426372 -16.391357 1931133.000000 1.000000 1.000000 -727190.375000 0.000000 
-6096.934182 -349.501323 9.434448 5043065.000000 4.000000 4.000000 -726948.187500 0.000000 
-6174.474282 -271.552959 -370.180420 9735805.000000 1.000000 1.000000 -726391.625000 3.000000 
-5798.316934 -1364.549388 -281.799377 9145580.000000 5.000000 4.000000 -726467.312500 0.000000 
-6625.384408 -1663.291500 -894.884796 2123554.000000 7.000000 3.000000 -727159.250000 0.000000 
-6316.705728 -271.517681 -412.586609 10125287.000000 1.000000 1.000000 -726347.500000 4.000000 
-5797.948403 -477.344463 -641.576111 9732173.000000 5.000000 3.000000 -726391.875000 0.000000 
-6331.342202 -272.436016 -56.129395 7782692.000000 5.000000 5.000000 -726675.812500 0.000000 
-6585.972909 -80.930156 -970.176498 6803624.000000 7.000000 3.000000 -726825.125000 0.000000 
-6646.584207 -1660.393200 -902.740494 2123554.000000 7.000000 7.000000 -727159.250000 0.000000 
-6651.171212 -1659.766100 -904.440201 2123554.000000 7.000000 7.000000 -727159.250000 0.000000 
-5798.181069 -960.181621 -584.104614 8169968.000000 2.000000 2.000000 -726611.187500 0.000000 
-5747.538857 -502.223003 -108.203369 10313885.000000 6.000000 3.000000 -726328.062500 0.000000 
-5819.080361 -271.787578 -825.285614 8173005.000000 2.000000 2.000000 -726610.812500 0.000000 
-5719.869546 -810.195171 -107.826782 9536302.000000 7.000000 5.000000 -726416.312500 0.000000 
-6151.076516 -271.624370 -87.982666 9151650.000000 1.000000 1.000000 -726466.500000 1.000000 
-5797.328042 -397.501934 -199.231323 9538096.000000 5.000000 1.000000 -726416.062500 0.000000 
-5773.195962 -491.305400 -17.136230 4065933.000000 6.000000 2.000000 -727000.437500 0.000000 
-5798.169961 -1087.351726 -321.589783 7973685.000000 2.000000 2.000000 -726642.500000 0.000000 
-5798.320840 -1429.369899 -634.384888 8950220.000000 5.000000 4.000000 -726494.750000 0.000000 
-5618.240396 -885.546489 -863.521515 8951003.000000 3.000000 3.000000 -726494.625000 0.000000 
-6179.219277 -182.938579 -8.825928 6802518.000000 7.000000 7.000000 -726825.125000 0.000000 
-6253.193887 -270.935649 -627.466614 6411152.000000 7.000000 4.000000 -726863.250000 0.000000 
-6560.589517 -352.775127 -460.243103 4260881.000000 7.000000 2.000000 -726989.500000 0.000000 
-6490.681130 -1652.917700 -846.188385 2123646.000000 7.000000 1.000000 -727159.250000 0.000000 
-5899.422280 -270.081646 -671.901886 6215239.000000 7.000000 1.000000 -726878.000000 0.000000 
-5813.533364 -1472.278896 -602.654175 2716728.000000 7.000000 5.000000 -727095.437500 0.000000 
-5673.908242 -1543.500598 -845.322388 3865514.000000 3.000000 2.000000 -727014.687500 0.000000 
-6054.214883 -271.582744 -635.307983 9540491.000000 1.000000 1.000000 -726415.812500 2.000000 
-6045.612710 -271.508037 -819.547089 10510448.000000 1.000000 1.000000 -726308.875000 5.000000 
-6499.651589 -1651.664500 -849.513794 2123646.000000 7.000000 7.000000 -727159.250000 0.000000 
-5797.629678 -512.690044 -350.095703 9732079.000000 5.000000 2.000000 -726391.875000 0.000000 
-6112.481484 -1445.358394 11.804199 4646867.000000 4.000000 1.000000 -726968.625000 0.000000 
-5861.495156 -271.667095 -83.301514 8368869.000000 1.000000 1.000000 -726580.562500 0.000000 
-5813.287637 -496.546245 -108.971436 7780208.000000 7.000000 1.000000 -726676.000000 0.000000 
-7034.184098 -271.588604 -62.158447 9546882.000000 1.000000 1.000000 -726415.312500 1.000000 
-5815.925576 -514.521099 -108.489746 8563081.000000 7.000000 2.000000 -726551.750000 0.000000 
-5815.532144 -271.499126 -818.354706 10508286.000000 1.000000 1.000000 -726309.000000 5.000000 
-6657.653298 -271.613750 -279.860718 9544629.000000 1.000000 1.000000 -726415.437500 1.000000 
-6357.338479 -272.212017 -332.172607 6411289.000000 7.000000 7.000000 -726863.250000 0.000000 
-5797.580605 -1155.498485 -193.151428 9535981.000000 5.000000 2.000000 -726416.375000 0.000000 
-5856.427896 -416.991558 -16.732910 3313486.000000 7.000000 3.000000 -727051.937500 0.000000 
-5617.611245 -812.030010 -902.602707 9730013.000000 5.000000 2.000000 -726392.312500 0.000000 
-7060.601300 -271.554058 3.843140 10519780.000000 1.000000 1.000000 -726308.250000 3.000000 
-6491.147683 -171.423931 -843.807892 6607480.000000 6.000000 4.000000 -726845.000000 0.000000 
-6053.152749 -1471.620800 -720.405487 4060783.000000 7.000000 6.000000 -727001.625000 0.000000 
-6302.797280 -270.731426 -10.740112 8370617.000000 7.000000 7.000000 -726580.437500 0.000000 
-6134.164407 -272.642070 -219.817505 7193388.000000 5.000000 5.000000 -726775.062500 0.000000 
-5798.629067 -454.430034 -382.224976 9926383.000000 5.000000 5.000000 -726369.625000 0.000000 
-6829.395486 -272.384868 -89.166992 8176360.000000 5.000000 5.000000 -726610.625000 0.000000 
-5719.700845 -699.847576 -842.278015 6603801.000000 5.000000 2.000000 -726845.375000 0.000000 
-6484.260476 -1610.615901 -845.693604 2123784.000000 7.000000 4.000000 -727159.250000 0.000000 
-6800.055612 -270.496074 -488.904175 7783890.000000 5.000000 1.000000 -726675.812500 0.000000 
-6267.707681 -270.956279 -727.274109 7390039.000000 5.000000 2.000000 -726742.562500 0.000000 
-6987.010400 -1428.334301 54.839966 5624687.000000 7.000000 3.000000 -726919.312500 0.000000 
-5573.272500 -1234.148296 -17.234985 5428730.000000 6.000000 4.000000 -726929.875000 0.000000 
-5923.379922 -271.586528 -724.326813 8955280.000000 1.000000 1.000000 -726494.000000 1.000000 
-5645.982705 -1313.355907 -17.874146 4452472.000000 5.000000 4.000000 -726979.562500 0.000000 
-6445.883889 -1662.321900 -957.972702 2912965.000000 7.000000 5.000000 -727081.437500 0.000000 
-6624.169106 -271.619365 -532.394592 9154275.000000 1.000000 1.000000 -726466.375000 0.000000 
-5844.590737 -331.816265 -14.025757 2918529.000000 7.000000 1.000000 -727080.500000 0.000000 
-6012.701211 -203.530254 -21.039673 9345907.000000 6.000000 3.000000 -726441.312500 0.000000 
-6554.713113 -331.560161 33.216187 4847518.000000 6.000000 2.000000 -726957.625000 0.000000 
-6002.808145 -271.673687 -744.463287 6997422.000000 7.000000 7.000000 -726800.437500 0.000000 
-6111.874429 -1391.934093 -46.584351 6993371.000000 6.000000 5.000000 -726801.000000 0.000000 
-6638.576211 -182.595684 16.890015 6998983.000000 7.000000 7.000000 -726800.375000 0.000000 
-6952.975198 -1470.310100 52.784546 2715989.000000 7.000000 4.000000 -727095.500000 0.000000 
-5617.880044 -1381.223888 -899.660995 2717235.000000 1.000000 1.000000 -727095.375000 0.000000 
-6031.947793 -1390.131389 -9.516602 6993187.000000 6.000000 1.000000 -726801.062500 0.000000 
-5696.344766 -657.262615 -107.711548 7779150.000000 7.000000 6.000000 -726676.187500 0.000000 
-6481.232095 -1582.233303 -845.866608 2123876.000000 7.000000 7.000000 -727159.250000 0.000000 
-5965.876626 -1562.098201 -2.922119 3865051.000000 7.000000 4.000000 -727014.687500 0.000000 
-5742.664102 -81.471904 -853.915192 8369287.000000 2.000000 1.000000 -726580.562500 0.000000 
-6438.256082 -271.687358 -294.523376 8762538.000000 1.000000 1.000000 -726521.062500 0.000000 
-6471.762002 -1569.222797 -843.011688 2123922.000000 7.000000 3.000000 -727159.250000 0.000000 
-5957.820107 -271.010112 -160.192322 6606191.000000 7.000000 3.000000 -726845.062500 0.000000 
-5798.167397 -1003.298076 -778.778107 7974009.000000 2.000000 2.000000 -726642.437500 0.000000 
-6725.920907 -271.529521 -557.997070 10516794.000000 1.000000 1.000000 -726308.500000 5.000000 
-5797.552529 -1084.339519 -527.062805 9341357.000000 5.000000 2.000000 -726441.875000 0.000000 
-5798.629678 -796.328289 -235.539185 9342229.000000 5.000000 5.000000 -726441.687500 0.000000 
-5972.202188 -272.155864 -92.081543 6410737.000000 7.000000 7.000000 -726863.312500 0.000000 
-6842.744805 -350.230693 27.792725 3509997.000000 7.000000 7.000000 -727039.375000 0.000000 
-6119.825173 -271.821025 -810.550903 8174109.000000 3.000000 3.000000 -726610.750000 0.000000 
-6687.067605 -271.597148 -526.509094 9154597.000000 1.000000 1.000000 -726466.375000 0.000000 
-6177.108071 -271.554790 -176.565674 10511685.000000 1.000000 1.000000 -726308.812500 4.000000 
-5781.538857 -276.617168 -39.184814 10314206.000000 1.000000 1.000000 -726328.000000 3.000000 
-5746.509316 -646.600078 -108.229736 9342366.000000 7.000000 3.000000 -726441.687500 0.000000 
-5897.905557 -675.599712 -121.205688 8758167.000000 2.000000 1.000000 -726521.437500 0.000000 
-6643.451913 -271.086650 -592.925415 8371816.000000 3.000000 1.000000 -726580.437500 0.000000 
-5798.577554 -531.748394 -790.991791 10120322.000000 7.000000 6.000000 -726347.812500 0.000000 
-5797.939370 -280.380352 -771.001801 9344072.000000 1.000000 1.000000 -726441.437500 0.000000 
-5798.221353 -1340.262706 -779.501007 8168543.000000 3.000000 3.000000 -726611.375000 0.000000 
-5873.216836 -1472.195903 -584.834778 3309026.000000 7.000000 4.000000 -727052.875000 0.000000 
-5705.835366 -384.156597 -843.844513 6019096.000000 4.000000 3.000000 -726891.562500 0.000000 
-5797.856362 -1439.437999 -597.283081 2716866.000000 1.000000 1.000000 -727095.375000 0.000000 
-6444.267495 -81.501323 -950.973495 10320745.000000 1.000000 1.000000 -726327.562500 6.000000 
-6113.173074 -270.296611 -407.884705 6020106.000000 7.000000 3.000000 -726891.437500 0.000000 
-5732.554360 -1662.460100 -869.128601 3864824.000000 7.000000 3.000000 -727014.750000 0.000000 
-5798.083657 -393.164165 -314.448181 8563542.000000 1.000000 1.000000 -726551.687500 0.000000 
-6040.825479 -270.710063 -796.469696 7977919.000000 4.000000 1.000000 -726641.812500 0.000000 
-5797.907144 -1179.870311 -808.687897 3112836.000000 2.000000 1.000000 -727066.687500 0.000000 
-6917.158593 -347.883770 52.200684 4260465.000000 7.000000 1.000000 -726989.625000 0.000000 
-6231.432900 -270.428569 -693.176208 6606652.000000 7.000000 2.000000 -726845.062500 0.000000 
-6318.356179 -1451.759700 21.111694 5819360.000000 6.000000 3.000000 -726904.875000 0.000000 
-6757.579690 -271.566875 -407.734619 10323133.000000 1.000000 1.000000 -726327.437500 4.000000 
-6124.909890 -271.549053 -422.547424 10123585.000000 1.000000 1.000000 -726347.562500 4.000000 
-6592.536111 -1446.361003 34.807251 4451366.000000 6.000000 3.000000 -726979.875000 0.000000 
-6403.271096 -350.835308 -300.806274 4456611.000000 7.000000 7.000000 -726978.500000 0.000000 
-5837.043252 -1391.503490 -176.885925 7384701.000000 3.000000 2.000000 -726743.125000 0.000000 
-6205.379006 -1663.194200 -926.368698 3505355.000000 7.000000 1.000000 -727040.062500 0.000000 
-6488.622476 -272.465312 -754.228912 7783109.000000 5.000000 5.000000 -726675.812500 0.000000 
-6346.203408 -1559.779697 3.508667 2124012.000000 7.000000 7.000000 -727159.250000 0.000000 
-5617.921548 -1548.586704 -908.230301 3506460.000000 2.000000 1.000000 -727040.000000 0.000000 
-5798.632852 -883.899517 -716.587006 9341956.000000 5.000000 5.000000 -726441.750000 0.000000 
-6234.101602 -81.566997 -941.816605 9931125.000000 1.000000 1.000000 -726369.375000 4.000000 
-5773.302529 -632.862529 -108.408813 9342596.000000 7.000000 2.000000 -726441.625000 0.000000 
-5757.041543 -862.668987 -107.522949 8756695.000000 7.000000 6.000000 -726521.750000 0.000000 
-5866.812539 -1307.348796 -17.704468 5819361.000000 7.000000 5.000000 -726904.875000 0.000000 
-5898.094155 -720.474895 149.788330 5236449.000000 1.000000 1.000000 -726940.187500 0.000000 
-6587.918710 -1432.314800 33.345581 5037774.000000 6.000000 6.000000 -726950.375000 0.000000 
-6621.741799 -1470.612804 -720.132507 4255776.000000 7.000000 7.000000 -726990.687500 0.000000 
-6503.251504 -270.525859 -753.510712 7783155.000000 5.000000 1.000000 -726675.812500 0.000000 
-5983.863564 -82.426128 -997.222794 7586414.000000 5.000000 5.000000 -726708.437500 0.000000 
-6943.429803 -272.430767 -72.244019 8176682.000000 5.000000 5.000000 -726610.625000 0.000000 
-6105.720681 -1662.813200 -985.822403 3702926.000000 7.000000 3.000000 -727025.187500 0.000000 
-6975.160104 -353.150493 -34.541260 3509813.000000 7.000000 1.000000 -727039.375000 0.000000 
-6895.650994 -258.078350 18.817993 9741047.000000 6.000000 3.000000 -726391.375000 0.000000 
-5617.577432 -1262.979686 -878.885010 9923857.000000 7.000000 3.000000 -726370.125000 0.000000 
-5679.086953 -1660.473000 -937.640900 2124015.000000 7.000000 7.000000 -727159.250000 0.000000 
-6721.293008 -272.677959 -160.276978 7391003.000000 5.000000 5.000000 -726742.562500 0.000000 
-5797.933267 -891.092021 -528.871582 9147053.000000 3.000000 2.000000 -726467.000000 0.000000 
-5797.940347 -435.334575 -305.716980 9343471.000000 3.000000 2.000000 -726441.500000 0.000000 
-6990.605500 -349.656719 -137.559570 2917148.000000 7.000000 7.000000 -727080.875000 0.000000 
-7070.589101 -254.152446 58.672119 6020977.000000 7.000000 4.000000 -726891.312500 0.000000 
-6424.033425 -1463.260005 25.957642 3111131.000000 7.000000 5.000000 -727067.000000 0.000000 
-5898.076577 -440.604717 -102.818359 7780714.000000 1.000000 1.000000 -726675.937500 0.000000 
-6469.329507 -271.516338 -691.884003 10901953.000000 1.000000 1.000000 -726266.187500 5.000000 
-6405.537087 -1473.050899 -538.893005 2913700.000000 7.000000 3.000000 -727081.437500 0.000000 
-5795.036782 -276.525249 -34.491577 10508096.000000 1.000000 1.000000 -726309.000000 4.000000 
-6994.382997 -318.942852 54.521851 6216247.000000 7.000000 5.000000 -726877.875000 0.000000 
-6013.177651 -271.668926 -302.901428 8565106.000000 1.000000 1.000000 -726551.562500 0.000000 
-5850.393350 -1096.738506 -12.545654 3867489.000000 6.000000 1.000000 -727014.312500 0.000000 
-6489.113687 -259.126079 29.637817 4652432.000000 6.000000 3.000000 -726967.250000 0.000000 
-5898.098428 -973.749675 149.390747 4844621.000000 1.000000 1.000000 -726958.625000 0.000000 
-6432.152810 -271.484478 -776.273499 7979115.000000 4.000000 3.000000 -726641.750000 0.000000 
-5677.270913 -1209.715312 -16.358154 4843380.000000 4.000000 2.000000 -726959.125000 0.000000 
-6858.511407 -226.194927 19.799561 7784210.000000 7.000000 7.000000 -726675.812500 0.000000 
-5562.875649 -1292.092998 -18.003540 5428408.000000 4.000000 3.000000 -726929.937500 0.000000 
-6133.383523 -272.084819 -482.217529 7193389.000000 5.000000 4.000000 -726775.062500 0.000000 
-6826.786111 -1471.462596 -349.815918 2913423.000000 7.000000 7.000000 -727081.437500 0.000000 
-6281.557290 -1541.302501 21.060547 2124104.000000 7.000000 1.000000 -727159.250000 0.000000 
-6546.536477 -263.584941 32.515625 4847840.000000 6.000000 3.000000 -726957.562500 0.000000 
-6383.353127 -1403.199199 24.309204 6602279.000000 7.000000 4.000000 -726845.687500 0.000000 
-5846.664956 -1264.326396 -19.013794 3507515.000000 7.000000 7.000000 -727039.875000 0.000000 
-6047.223550 -1504.898693 6.303833 6209808.000000 6.000000 6.000000 -726879.375000 0.000000 
-5778.887979 -487.460796 -18.137817 6409403.000000 6.000000 5.000000 -726863.562500 0.000000 
-5942.762612 -270.698467 -801.435608 7977597.000000 4.000000 1.000000 -726641.875000 0.000000 
-5582.415688 -1181.306499 -106.988647 7972534.000000 7.000000 7.000000 -726642.687500 0.000000 
-5898.125405 -838.570720 -155.527710 8170840.000000 1.000000 1.000000 -726611.062500 0.000000 
-6410.919229 -81.593486 -927.667007 9738385.000000 1.000000 1.000000 -726391.500000 3.000000 
-6273.536599 -1470.786296 -610.750610 3506136.000000 7.000000 7.000000 -727040.000000 0.000000 
-6700.037393 -271.494243 -438.120728 10710361.000000 1.000000 1.000000 -726290.875000 5.000000 
-6622.183999 -181.580669 14.552368 9544811.000000 1.000000 1.000000 -726415.437500 1.000000 
-6526.728677 -1391.600200 -154.487793 6015504.000000 7.000000 6.000000 -726892.500000 0.000000 
-5852.915444 -1039.558696 -108.005615 8951781.000000 7.000000 4.000000 -726494.500000 0.000000 
-6961.029794 -332.669170 -293.227905 10906550.000000 7.000000 4.000000 -726265.687500 0.000000 
-5844.927529 -149.353984 -844.664398 5629936.000000 5.000000 3.000000 -726917.437500 0.000000 
-5807.219521 -1090.044719 -176.839417 9341401.000000 5.000000 1.000000 -726441.875000 0.000000 
-5703.770181 -1550.867198 -843.477692 3308843.000000 6.000000 3.000000 -727052.875000 0.000000 
-6606.561196 -237.975322 36.578979 5434294.000000 6.000000 1.000000 -726928.812500 0.000000 
-6304.173501 -271.473613 -619.903625 8370620.000000 3.000000 2.000000 -726580.437500 0.000000 
-5829.149819 -269.827861 -838.905914 5629292.000000 5.000000 5.000000 -726917.750000 0.000000 
-5638.827432 -299.696636 -846.129700 6214734.000000 3.000000 1.000000 -726878.062500 0.000000 
-5618.566201 -500.196147 -914.836197 9536399.000000 5.000000 5.000000 -726416.312500 0.000000 
-6131.926125 -1470.557796 -653.914490 3703799.000000 7.000000 7.000000 -727025.125000 0.000000 
-6460.456704 -1513.292995 -841.529510 2124106.000000 7.000000 6.000000 -727159.250000 0.000000 
-6312.283486 -258.475688 -10.810547 8370709.000000 7.000000 3.000000 -726580.437500 0.000000 
-6406.737222 -192.200054 25.159424 3708948.000000 7.000000 5.000000 -727023.937500 0.000000 
-6515.547524 -210.608135 3.752197 9543983.000000 6.000000 4.000000 -726415.500000 0.000000 
-6416.849587 -83.072979 -858.595215 6803348.000000 7.000000 7.000000 -726825.125000 0.000000 
-6800.003915 -1391.490093 -92.829590 6407331.000000 7.000000 5.000000 -726863.937500 0.000000 
-6572.581521 -80.957866 -976.369507 7391466.000000 5.000000 2.000000 -726742.500000 0.000000 
-5797.909463 -1031.968975 -486.612671 8951507.000000 3.000000 2.000000 -726494.500000 0.000000 
-6584.080911 -231.116802 33.153320 5043432.000000 6.000000 6.000000 -726948.000000 0.000000 
-6740.437600 -271.596172 -204.367126 9934524.000000 1.000000 1.000000 -726369.187500 2.000000 
-6184.632119 -271.561138 -158.945190 10899327.000000 1.000000 1.000000 -726266.312500 4.000000 
-5898.730996 -1353.770885 -82.822388 9146177.000000 5.000000 5.000000 -726467.187500 0.000000 
-6048.673257 -271.488994 -813.105011 10122898.000000 1.000000 1.000000 -726347.625000 5.000000 
-6820.047006 -270.988994 -235.959900 7783935.000000 5.000000 2.000000 -726675.812500 0.000000 
-5785.131875 -543.953960 -108.248047 8562805.000000 7.000000 3.000000 -726551.750000 0.000000 
-6522.133279 -272.639141 -713.232208 7390591.000000 5.000000 5.000000 -726742.562500 0.000000 
-5797.643960 -378.322856 -260.520691 9926520.000000 5.000000 2.000000 -726369.625000 0.000000 
-6699.150887 -271.574199 -615.967712 9739671.000000 1.000000 1.000000 -726391.437500 2.000000 
-5797.882852 -621.776836 -765.700012 6408807.000000 7.000000 7.000000 -726863.625000 0.000000 
-5895.447671 -462.921489 -17.248657 2917977.000000 7.000000 2.000000 -727080.687500 0.000000 
-5797.580850 -1143.989727 -386.622925 9730700.000000 5.000000 2.000000 -726392.125000 0.000000 
-6343.074929 -207.054912 -5.819092 7586778.000000 7.000000 2.000000 -726708.437500 0.000000 
-6872.056603 -1539.659603 48.757446 5819727.000000 7.000000 4.000000 -726904.812500 0.000000 
-6230.380105 -1391.946514 -100.991699 6993647.000000 7.000000 5.000000 -726800.937500 0.000000 
-6449.554604 -1500.577495 -838.177002 2124152.000000 7.000000 1.000000 -727159.250000 0.000000 
-6451.502175 -1500.273296 -838.900604 2124152.000000 7.000000 2.000000 -727159.250000 0.000000 
-5798.270669 -380.269146 -667.590515 9926523.000000 5.000000 4.000000 -726369.625000 0.000000 
-6454.053689 -1499.874797 -839.848785 2124152.000000 7.000000 4.000000 -727159.250000 0.000000 
-6729.209908 -295.638042 41.151855 2720083.000000 7.000000 5.000000 -727094.687500 0.000000 
-5797.884683 -406.365947 -721.219299 8953946.000000 2.000000 1.000000 -726494.125000 0.000000 
-5798.697061 -915.191509 -738.892700 9731162.000000 5.000000 5.000000 -726392.000000 0.000000 
-5798.228555 -1330.104686 -731.371490 7580893.000000 2.000000 2.000000 -726709.062500 0.000000 
-6377.595315 -271.520610 -567.830872 10707326.000000 1.000000 1.000000 -726291.062500 5.000000 
-7030.253404 -352.809307 -128.328796 3868913.000000 7.000000 2.000000 -727013.937500 0.000000 
-5832.936074 -1470.812099 -192.545776 3309071.000000 7.000000 7.000000 -727052.875000 0.000000 
-6947.180001 -350.559795 36.683350 4260419.000000 7.000000 7.000000 -726989.687500 0.000000 
-5995.365884 -271.545391 -147.015381 10897625.000000 1.000000 1.000000 -726266.437500 4.000000 
-5771.356362 -990.702800 -106.839355 7973960.000000 7.000000 7.000000 -726642.500000 0.000000 
-6314.244485 -271.479106 -693.582886 10512977.000000 1.000000 1.000000 -726308.750000 5.000000 
-5797.860513 -1463.363399 -595.003296 2716774.000000 1.000000 1.000000 -727095.375000 0.000000 
-5857.921060 -1661.532400 -913.566498 4060002.000000 7.000000 7.000000 -727001.687500 0.000000 
-6787.448190 -352.115459 -3.654419 3869281.000000 7.000000 4.000000 -727013.875000 0.000000 
-6625.820199 -269.937603 -393.083313 6020565.000000 7.000000 1.000000 -726891.375000 0.000000 
-5798.291543 -1086.039592 -480.183899 8951323.000000 3.000000 3.000000 -726494.562500 0.000000 
-6532.608010 -1473.245906 -455.900574 2124197.000000 7.000000 3.000000 -727159.250000 0.000000 
-5692.022744 -672.246501 -108.227051 9341906.000000 7.000000 3.000000 -726441.750000 0.000000 
-5825.036172 -1055.464824 -13.697754 6015919.000000 6.000000 6.000000 -726892.375000 0.000000 
-6543.652810 -1471.504497 -459.533630 2124197.000000 7.000000 6.000000 -727159.250000 0.000000 
-5798.661782 -975.405681 -708.195801 9341680.000000 5.000000 5.000000 -726441.812500 0.000000 
-6214.779519 -1469.950893 -241.620728 3111270.000000 7.000000 7.000000 -727067.000000 0.000000 
-6741.450692 -352.843853 -468.147888 4651789.000000 7.000000 3.000000 -726967.437500 0.000000 
-6296.994973 -87.582012 -847.926605 5825757.000000 6.000000 3.000000 -726903.500000 0.000000 
-6283.163308 -352.263652 -168.367004 2720360.000000 7.000000 4.000000 -727094.625000 0.000000 
-6695.622109 -271.509746 -428.796997 10516517.000000 1.000000 1.000000 -726308.500000 4.000000 
-6119.449807 -271.772441 -399.938110 8174107.000000 3.000000 3.000000 -726610.750000 0.000000 
-6427.473000 -314.766094 25.927368 4456748.000000 6.000000 5.000000 -726978.500000 0.000000 
-5798.273477 -557.928813 -465.208618 9537592.000000 4.000000 4.000000 -726416.125000 0.000000 
-6170.323098 -272.494487 -732.542999 7389809.000000 5.000000 5.000000 -726742.562500 0.000000 
-6452.705728 -1485.672405 -840.053802 2124198.000000 7.000000 6.000000 -727159.250000 0.000000 
-6482.090920 -271.390239 -717.206085 6215928.000000 7.000000 5.000000 -726877.937500 0.000000 
-5716.637368 -324.415142 -841.807098 6019418.000000 4.000000 1.000000 -726891.500000 0.000000 
-5798.693643 -1186.175792 -688.750092 9341082.000000 5.000000 5.000000 -726441.937500 0.000000 
-5962.334878 -271.530010 -308.842224 10509662.000000 1.000000 1.000000 -726308.937500 5.000000 
-5843.407754 -271.518047 -159.980530 10702355.000000 1.000000 1.000000 -726291.375000 4.000000 
-5798.613564 -767.473003 -405.219421 9342322.000000 5.000000 5.000000 -726441.687500 0.000000 
-6776.304696 -1522.634899 43.616089 3702922.000000 7.000000 5.000000 -727025.187500 0.000000 
-5747.948281 -814.963298 -9.951904 3869007.000000 6.000000 5.000000 -727013.937500 0.000000 
-5797.912026 -338.616924 -620.330688 9343841.000000 3.000000 2.000000 -726441.437500 0.000000 
-5798.334878 -1196.666301 -530.809875 9535891.000000 5.000000 4.000000 -726416.375000 0.000000 
-6269.113870 -271.503398 -688.870300 10318765.000000 1.000000 1.000000 -726327.687500 5.000000 
-5797.289712 -709.865215 -476.388794 9925924.000000 5.000000 1.000000 -726369.687500 0.000000 
-5899.930947 -81.515605 -947.473907 10896297.000000 1.000000 1.000000 -726266.562500 5.000000 
-6440.787515 -1473.321804 -426.318909 2124243.000000 7.000000 2.000000 -727159.250000 0.000000 
-5942.730752 -271.494854 -688.133911 10121931.000000 1.000000 1.000000 -726347.687500 5.000000 
-5842.825356 -271.481060 -562.564026 10121010.000000 1.000000 1.000000 -726347.750000 5.000000 
-6179.698403 -1518.457393 14.178345 6014400.000000 6.000000 3.000000 -726892.875000 0.000000 
-5812.958047 -307.833110 -15.638062 3313992.000000 7.000000 6.000000 -727051.812500 0.000000 
-6174.579324 -271.017559 -511.834900 7586090.000000 5.000000 2.000000 -726708.500000 0.000000 
-5798.304849 -1162.146587 -495.599609 9146179.000000 5.000000 4.000000 -726467.187500 0.000000 
-6462.740090 -1469.827602 -433.541626 2124243.000000 7.000000 7.000000 -727159.250000 0.000000 
-5618.192666 -743.426677 -858.581512 8756423.000000 3.000000 3.000000 -726521.812500 0.000000 
-6221.017495 -271.515972 -566.471619 10705854.000000 1.000000 1.000000 -726291.187500 5.000000 
-6319.980508 -165.502666 -845.035706 5239257.000000 5.000000 5.000000 -726938.687500 0.000000 
-5797.888345 -499.540630 -467.151978 6604858.000000 1.000000 1.000000 -726845.250000 0.000000 
-6289.164529 -133.828716 -845.788391 5825527.000000 6.000000 4.000000 -726903.562500 0.000000 
-6314.262124 -271.510234 -814.808197 10319180.000000 1.000000 1.000000 -726327.687500 5.000000 
-5888.571450 -745.196025 -107.824463 9537682.000000 7.000000 6.000000 -726416.125000 0.000000 
-6323.831521 -271.561016 -469.115295 9542422.000000 1.000000 1.000000 -726415.625000 2.000000 
-5798.181436 -833.435771 -802.521515 8170475.000000 2.000000 2.000000 -726611.062500 0.000000 
-6113.976418 -330.409648 10.290771 5238473.000000 4.000000 4.000000 -726939.187500 0.000000 
-5731.625283 -1458.885799 -13.807983 6600624.000000 7.000000 2.000000 -726846.125000 0.000000 
-5798.575967 -628.874980 -739.786285 9342784.000000 5.000000 5.000000 -726441.625000 0.000000 
-6670.459695 -271.526470 -308.709473 10903836.000000 1.000000 1.000000 -726266.062500 5.000000 
-6058.779824 -181.614849 -0.231323 8761202.000000 1.000000 1.000000 -726521.125000 0.000000 
-6041.423745 -182.159893 -7.732666 6020473.000000 7.000000 7.000000 -726891.375000 0.000000 
-6148.025308 -271.931621 -315.283997 7782187.000000 5.000000 4.000000 -726675.875000 0.000000 
-6129.681619 -272.015850 -232.326294 7389715.000000 5.000000 4.000000 -726742.562500 0.000000 
-5797.943032 -512.504497 -619.873474 9537731.000000 5.000000 3.000000 -726416.062500 0.000000 
-7061.112802 -327.793926 56.937988 6020655.000000 7.000000 7.000000 -726891.375000 0.000000 
-6427.519998 -272.995342 -253.119812 6998248.000000 7.000000 7.000000 -726800.375000 0.000000 
-6542.303323 -1472.320797 -612.968811 2913608.000000 7.000000 5.000000 -727081.437500 0.000000 
-6657.576089 -1563.793499 -844.420898 3505400.000000 7.000000 2.000000 -727040.062500 0.000000 
-5735.194497 -587.743511 -14.436157 6408851.000000 6.000000 2.000000 -726863.625000 0.000000 
-5848.825356 -114.840435 -846.175812 5630120.000000 5.000000 2.000000 -726917.437500 0.000000 
-5798.223794 -331.187725 -359.757324 9538327.000000 4.000000 4.000000 -726416.000000 0.000000 
-6180.049600 -193.757549 14.501953 4066576.000000 6.000000 2.000000 -727000.312500 0.000000 
-5824.564614 -1659.868400 -912.328796 3308245.000000 7.000000 7.000000 -727052.937500 0.000000 
-6492.158975 -219.181133 29.257324 2523064.000000 7.000000 5.000000 -727110.500000 0.000000 
-5887.932656 -1233.511486 -106.987915 8169276.000000 7.000000 7.000000 -726611.250000 0.000000 
-5797.326333 -573.393657 -744.850098 9342968.000000 4.000000 1.000000 -726441.562500 0.000000 
-6659.922189 -350.122905 -227.704712 3115041.000000 7.000000 7.000000 -727066.187500 0.000000 
-6531.670205 -81.537578 -949.726395 10321573.000000 1.000000 1.000000 -726327.562500 5.000000 
-6231.926309 -1661.538800 -879.818390 3864271.000000 7.000000 7.000000 -727014.750000 0.000000 
-6543.316873 -200.192852 5.782837 9544213.000000 5.000000 3.000000 -726415.500000 0.000000 
-6865.174203 -1391.048809 -208.785828 6603245.000000 7.000000 3.000000 -726845.500000 0.000000 
-6404.284707 -81.511577 -954.848694 10513991.000000 1.000000 1.000000 -726308.687500 6.000000 
-6436.514810 -1467.434597 26.631226 3505996.000000 7.000000 5.000000 -727040.062500 0.000000 
-5807.621743 -271.489482 -354.375671 7781175.000000 3.000000 2.000000 -726675.937500 0.000000 
-5797.905435 -427.555034 -719.491791 8953854.000000 2.000000 1.000000 -726494.125000 0.000000 
