ply
format ascii 1.0
comment Created by CloudCompare v2.12 alpha
comment Created 6/8/2021 9:25 PM
obj_info Generated by CloudCompare!
element vertex 451
property double x
property double y
property double z
property float scalar_fullwaveIndex
property float scalar_NumberOfReturns
property float scalar_ReturnNumber
property float scalar_GpsTime
property float scalar_Intensity
property float scalar_Original_cloud_index
end_header
-6051.352822 -181.515239 -11.548950 12819149.000000 1.000000 1.000000 -1128294.500000 4.000000 1.000000 
-6087.939492 -271.064556 -199.184387 7370181.000000 7.000000 3.000000 -1129054.875000 0.000000 0.000000 
-6704.273995 -270.515972 -387.558472 8669628.000000 5.000000 1.000000 -1128865.125000 0.000000 1.000000 
-6976.609399 -271.556255 -220.606628 12832172.000000 1.000000 1.000000 -1128293.750000 4.000000 1.000000 
-6603.245706 -272.577251 -158.652771 6775459.000000 7.000000 7.000000 -1129120.875000 0.000000 0.000000 
-6096.737222 -272.270488 -651.157013 6774412.000000 7.000000 7.000000 -1129120.875000 0.000000 0.000000 
-6214.953774 -1389.891002 -3.179443 4680566.000000 7.000000 3.000000 -1129275.000000 0.000000 0.000000 
-7046.154599 -182.607158 35.432129 5583146.000000 7.000000 7.000000 -1129221.250000 0.000000 0.000000 
-6056.914712 -85.498760 -848.073303 6775463.000000 6.000000 3.000000 -1129120.875000 0.000000 0.000000 
-5798.110635 -833.771404 -369.439270 8065458.000000 1.000000 1.000000 -1128960.500000 0.000000 1.000000 
-6650.816689 -271.535747 -337.503296 13122603.000000 1.000000 1.000000 -1128266.000000 5.000000 1.000000 
-6449.828530 -182.471294 26.868286 7073729.000000 6.000000 5.000000 -1129089.125000 0.000000 0.000000 
-6377.882913 -272.697979 -449.210571 7772160.000000 5.000000 5.000000 -1129008.250000 0.000000 1.000000 
-6060.588174 -521.066387 -998.691895 13409891.000000 7.000000 3.000000 -1128240.750000 0.000000 1.000000 
-6149.427102 -245.450054 -17.464844 9562124.000000 7.000000 4.000000 -1128728.625000 0.000000 1.000000 
-5824.979043 -706.548320 -108.679443 11929942.000000 7.000000 1.000000 -1128394.375000 0.000000 1.000000 
-5888.883706 -271.525615 -338.010803 12522003.000000 1.000000 1.000000 -1128325.000000 5.000000 1.000000 
-6754.356088 -253.337749 12.506226 11646861.000000 6.000000 5.000000 -1128430.750000 0.000000 1.000000 
-6857.926095 -190.514141 49.457642 6179827.000000 7.000000 1.000000 -1129175.750000 0.000000 0.000000 
-5759.390054 -1132.991924 -14.121094 5576358.000000 7.000000 3.000000 -1129222.250000 0.000000 0.000000 
-5664.676675 -1265.496196 -18.670288 4680567.000000 7.000000 6.000000 -1129275.000000 0.000000 0.000000 
-6044.139199 -79.971782 -871.522888 7371234.000000 7.000000 1.000000 -1129054.875000 0.000000 0.000000 
-5947.614053 -618.669414 -997.702805 12522571.000000 7.000000 7.000000 -1128325.000000 0.000000 1.000000 
-6274.756814 -195.688945 18.541748 6775249.000000 7.000000 5.000000 -1129120.875000 0.000000 0.000000 
-5798.223672 -696.469402 -752.885498 10745409.000000 3.000000 3.000000 -1128552.250000 0.000000 1.000000 
-6052.481606 -262.067485 -24.191772 11934280.000000 3.000000 1.000000 -1128394.000000 0.000000 1.000000 
-5965.485024 -181.645244 -16.837158 11046611.000000 1.000000 1.000000 -1128510.625000 1.000000 1.000000 
-6113.203896 -271.510479 -481.293030 8965588.000000 3.000000 2.000000 -1128820.500000 0.000000 1.000000 
-5797.580361 -1150.432292 -615.200989 11039758.000000 5.000000 2.000000 -1128511.500000 0.000000 1.000000 
-5789.252480 -584.397075 -108.010742 9259795.000000 7.000000 5.000000 -1128774.750000 0.000000 1.000000 
-6263.041482 -162.754375 -844.392395 6477332.000000 7.000000 5.000000 -1129150.250000 0.000000 0.000000 
-6488.706399 -81.766948 -940.223099 9863201.000000 2.000000 2.000000 -1128682.125000 0.000000 1.000000 
-5804.728677 -933.733379 -108.003418 11337113.000000 7.000000 4.000000 -1128470.875000 0.000000 1.000000 
-5974.570474 -624.168193 -997.606995 12818251.000000 7.000000 7.000000 -1128294.625000 0.000000 1.000000 
-5775.204507 -609.281353 -107.195557 10745683.000000 7.000000 7.000000 -1128552.250000 0.000000 1.000000 
-5727.414834 -582.108867 -842.175812 5877642.000000 7.000000 4.000000 -1129200.250000 0.000000 0.000000 
-6696.386605 -272.033428 -523.671387 8370869.000000 5.000000 4.000000 -1128912.750000 0.000000 1.000000 
-6663.785104 -252.380352 7.916748 11052842.000000 6.000000 4.000000 -1128510.375000 0.000000 1.000000 
-6291.357705 -1393.133495 -35.909424 4680636.000000 7.000000 7.000000 -1129275.000000 0.000000 0.000000 
-5851.206460 -271.628398 -72.669189 7369481.000000 7.000000 6.000000 -1129055.000000 0.000000 0.000000 
-5976.119424 -528.859111 -997.606995 13408841.000000 7.000000 7.000000 -1128240.875000 0.000000 1.000000 
-6602.721993 -1390.305889 -360.970886 5874768.000000 7.000000 3.000000 -1129200.875000 0.000000 0.000000 
-5942.764077 -271.504741 -424.246887 12522774.000000 1.000000 1.000000 -1128325.000000 5.000000 1.000000 
-5894.124063 -897.892070 -108.254272 10448324.000000 7.000000 3.000000 -1128594.250000 0.000000 1.000000 
-5797.309976 -530.304424 -427.298889 11634545.000000 5.000000 1.000000 -1128431.750000 0.000000 1.000000 
-5666.011025 -1252.753002 -17.950928 4680637.000000 7.000000 5.000000 -1129275.000000 0.000000 0.000000 
-6859.643807 -272.739604 -112.302490 8072527.000000 5.000000 5.000000 -1128960.000000 0.000000 1.000000 
-5668.615518 -1253.336986 -19.193359 4680637.000000 7.000000 7.000000 -1129275.000000 0.000000 0.000000 
-5654.308389 -549.877666 -108.395630 11337042.000000 7.000000 2.000000 -1128470.875000 0.000000 1.000000 
-6733.710092 -1403.391704 40.911743 5576566.000000 7.000000 6.000000 -1129222.250000 0.000000 0.000000 
-6762.772592 -1484.292797 43.709229 4680705.000000 7.000000 3.000000 -1129275.000000 0.000000 0.000000 
-6989.761498 -205.217876 27.847534 12241790.000000 4.000000 3.000000 -1128357.250000 0.000000 1.000000 
-6520.437173 -272.610332 -430.969421 5880579.000000 7.000000 7.000000 -1129200.000000 0.000000 0.000000 
-5797.595620 -794.512615 -327.941223 11041365.000000 5.000000 2.000000 -1128511.250000 0.000000 1.000000 
-5798.180703 -765.034893 -815.656494 9853960.000000 2.000000 2.000000 -1128682.875000 0.000000 1.000000 
-5907.855386 -81.669292 -939.607697 7668525.000000 7.000000 7.000000 -1129019.625000 0.000000 0.000000 
-6456.872109 -272.480693 -376.017273 8370028.000000 5.000000 5.000000 -1128912.750000 0.000000 1.000000 
-5617.899331 -1631.967001 -868.014587 8358621.000000 3.000000 2.000000 -1128914.000000 0.000000 1.000000 
-6504.053506 -106.049419 -998.952896 11645121.000000 7.000000 2.000000 -1128430.875000 0.000000 1.000000 
-5852.904702 -583.470317 -999.048294 12816641.000000 7.000000 1.000000 -1128294.750000 0.000000 1.000000 
-5749.032754 -324.687847 -47.597900 12225060.000000 1.000000 1.000000 -1128358.625000 0.000000 1.000000 
-5875.244058 -501.991069 -998.691498 11931141.000000 7.000000 3.000000 -1128394.125000 0.000000 1.000000 
-6207.243691 -271.520610 -472.202820 11936245.000000 1.000000 1.000000 -1128393.750000 3.000000 1.000000 
-6216.817483 -81.604961 -990.029404 11049911.000000 1.000000 1.000000 -1128510.500000 2.000000 1.000000 
-5829.275186 -613.481304 -108.221191 11634612.000000 7.000000 3.000000 -1128431.750000 0.000000 1.000000 
-6683.928201 -1391.538494 -631.898376 13418428.000000 1.000000 1.000000 -1128239.875000 3.000000 1.000000 
-5561.451211 -813.666423 -108.537109 9256925.000000 7.000000 3.000000 -1128775.125000 0.000000 1.000000 
-5665.410439 -1239.583690 -16.317993 4680707.000000 7.000000 2.000000 -1129275.000000 0.000000 0.000000 
-5655.465127 -81.538921 -942.679306 12518580.000000 1.000000 1.000000 -1128325.625000 6.000000 1.000000 
-5897.932290 -512.053325 -111.829102 10747433.000000 2.000000 1.000000 -1128552.000000 0.000000 1.000000 
-5668.182900 -1240.201000 -17.640015 4680707.000000 7.000000 5.000000 -1129275.000000 0.000000 0.000000 
-6087.572305 -1025.997478 -980.141205 13115541.000000 7.000000 6.000000 -1128266.375000 0.000000 1.000000 
-6349.457192 -270.962505 -694.257599 8070920.000000 5.000000 2.000000 -1128960.000000 0.000000 1.000000 
-6138.451089 -255.976299 -17.830688 9561984.000000 7.000000 7.000000 -1128728.625000 0.000000 1.000000 
-5669.305215 -520.740459 -108.021606 9854584.000000 7.000000 4.000000 -1128682.750000 0.000000 1.000000 
-5967.175454 -271.062725 -134.458008 7369831.000000 7.000000 3.000000 -1129054.875000 0.000000 0.000000 
-6581.206094 -271.895244 -617.268799 9266099.000000 5.000000 4.000000 -1128774.375000 0.000000 1.000000 
-6349.735391 -102.805767 -845.697815 5284460.000000 7.000000 1.000000 -1129240.375000 0.000000 0.000000 
-5810.985024 -1227.358898 -107.078369 9851365.000000 7.000000 7.000000 -1128683.375000 0.000000 1.000000 
-6562.221780 -271.634990 -519.347900 10754857.000000 1.000000 1.000000 -1128551.625000 0.000000 1.000000 
-5797.630776 -390.392559 -359.714783 11635104.000000 5.000000 2.000000 -1128431.625000 0.000000 1.000000 
-6560.705972 -271.521221 -760.531708 12826438.000000 1.000000 1.000000 -1128294.125000 5.000000 1.000000 
-6034.288125 -608.517559 -998.330200 12819021.000000 7.000000 5.000000 -1128294.625000 0.000000 1.000000 
-5797.868936 -1164.016307 -250.888306 8660247.000000 2.000000 1.000000 -1128866.000000 0.000000 1.000000 
-5618.222329 -332.025371 -900.124496 11041860.000000 4.000000 4.000000 -1128511.125000 0.000000 1.000000 
-6345.425515 -235.193706 -5.731934 8071126.000000 7.000000 7.000000 -1128960.000000 0.000000 1.000000 
-5798.220742 -974.156292 -804.846191 9852700.000000 2.000000 2.000000 -1128683.125000 0.000000 1.000000 
-5711.395791 -1013.033611 -107.470337 9554355.000000 7.000000 7.000000 -1128729.500000 0.000000 1.000000 
-5797.629556 -440.399150 -419.698792 11339215.000000 5.000000 2.000000 -1128470.500000 0.000000 1.000000 
-6923.701394 -271.971904 -75.933472 8969086.000000 5.000000 4.000000 -1128820.375000 0.000000 1.000000 
-6240.640725 -271.493022 -763.255096 13116728.000000 1.000000 1.000000 -1128266.375000 5.000000 1.000000 
-5697.124917 -328.365093 -15.739502 5879109.000000 7.000000 7.000000 -1129200.125000 0.000000 0.000000 
-6015.906045 -185.247051 7.128174 7072680.000000 7.000000 1.000000 -1129089.250000 0.000000 0.000000 
-5981.913735 -271.530742 -336.715881 12523333.000000 1.000000 1.000000 -1128325.000000 5.000000 1.000000 
-6525.549478 -271.529399 -154.016602 12825941.000000 1.000000 1.000000 -1128294.250000 4.000000 1.000000 
-5787.488076 -545.411968 -109.069702 8365616.000000 7.000000 2.000000 -1128913.000000 0.000000 1.000000 
-6152.691079 -181.560771 -2.710571 12525919.000000 1.000000 1.000000 -1128324.750000 4.000000 1.000000 
-6520.710183 -271.518901 -332.471375 12825873.000000 1.000000 1.000000 -1128294.250000 5.000000 1.000000 
-5517.190347 -1098.940593 -107.599976 13109233.000000 7.000000 6.000000 -1128267.125000 0.000000 1.000000 
-5797.196572 -1242.611400 -632.659485 11632238.000000 5.000000 1.000000 -1128432.125000 0.000000 1.000000 
-5803.146157 -271.487651 -789.773499 7770272.000000 5.000000 3.000000 -1129008.375000 0.000000 1.000000 
-6470.858804 -271.540752 -387.927307 12235004.000000 1.000000 1.000000 -1128357.750000 4.000000 1.000000 
-6156.904275 -271.544048 -635.450806 11640077.000000 1.000000 1.000000 -1128431.250000 3.000000 1.000000 
-6244.621682 -271.496929 -825.805786 5880231.000000 7.000000 7.000000 -1129200.000000 0.000000 0.000000 
-6117.617471 -81.621807 -851.099213 10158390.000000 1.000000 1.000000 -1128636.750000 0.000000 1.000000 
-5714.726846 -1090.255779 -108.310181 8660246.000000 7.000000 4.000000 -1128866.000000 0.000000 1.000000 
-6574.601296 -271.498149 -348.157104 6178989.000000 7.000000 5.000000 -1129175.875000 0.000000 0.000000 
-6684.988015 -271.546489 -159.708496 13123091.000000 1.000000 1.000000 -1128266.000000 4.000000 1.000000 
-6609.690194 -271.450664 -693.441101 10160349.000000 2.000000 1.000000 -1128636.750000 0.000000 1.000000 
-5903.917642 -271.502544 -673.880005 13111967.000000 1.000000 1.000000 -1128266.625000 5.000000 1.000000 
-6776.057687 -271.544048 -49.744629 12829440.000000 1.000000 1.000000 -1128294.000000 4.000000 1.000000 
-5797.907754 -1185.044109 -778.537598 9553940.000000 3.000000 2.000000 -1128729.625000 0.000000 1.000000 
-6106.853616 -270.510967 -37.853271 8070076.000000 5.000000 1.000000 -1128960.000000 0.000000 1.000000 
-5949.057900 -588.766704 -999.048492 12817901.000000 7.000000 1.000000 -1128294.625000 0.000000 1.000000 
-6811.791207 -269.968853 -246.619507 7670060.000000 7.000000 1.000000 -1129019.500000 0.000000 0.000000 
-5850.944619 -271.736797 -696.077789 9560099.000000 2.000000 2.000000 -1128728.750000 0.000000 1.000000 
-6720.469888 -263.749614 9.821899 11646441.000000 6.000000 4.000000 -1128430.875000 0.000000 1.000000 
-7067.311000 -214.344097 58.123657 7372978.000000 7.000000 5.000000 -1129054.750000 0.000000 0.000000 
-6346.892373 -271.568340 -570.672913 11049837.000000 1.000000 1.000000 -1128510.500000 1.000000 1.000000 
-5670.599648 -1214.679607 -16.126343 4680847.000000 7.000000 3.000000 -1129274.875000 0.000000 0.000000 
-5935.452432 -271.579692 -700.267303 11045708.000000 1.000000 1.000000 -1128510.625000 2.000000 1.000000 
-5672.449746 -1215.085887 -17.008057 4680847.000000 7.000000 5.000000 -1129274.875000 0.000000 0.000000 
-6374.394082 -271.577617 -274.567871 11938343.000000 1.000000 1.000000 -1128393.625000 3.000000 1.000000 
-5937.029092 -185.830913 -23.079712 8667035.000000 7.000000 6.000000 -1128865.250000 0.000000 1.000000 
-5797.568765 -1156.901409 -552.552429 10149008.000000 3.000000 1.000000 -1128637.875000 0.000000 1.000000 
-6295.709573 -271.554912 -374.478394 11937364.000000 1.000000 1.000000 -1128393.750000 3.000000 1.000000 
-5641.739053 -82.222759 -867.382813 7370045.000000 7.000000 7.000000 -1129054.875000 0.000000 0.000000 
-5918.713052 -271.615947 -264.649597 10749184.000000 1.000000 1.000000 -1128551.875000 1.000000 1.000000 
-6923.879098 -270.591533 -283.079285 9267637.000000 5.000000 1.000000 -1128774.250000 0.000000 1.000000 
-5673.358560 -779.757488 -108.392944 12223522.000000 7.000000 2.000000 -1128359.000000 0.000000 1.000000 
-6632.263589 -260.973613 -997.702499 11941501.000000 7.000000 7.000000 -1128393.500000 0.000000 1.000000 
-6348.333718 -271.542949 -661.231506 12233397.000000 1.000000 1.000000 -1128357.875000 4.000000 1.000000 
-5592.315103 -1103.523723 -107.600220 11630413.000000 7.000000 6.000000 -1128432.625000 0.000000 1.000000 
-5617.402261 -436.483257 -890.776611 6176403.000000 2.000000 1.000000 -1129176.125000 0.000000 0.000000 
-6118.827615 -1391.934001 -34.679443 7363949.000000 7.000000 5.000000 -1129055.875000 0.000000 0.000000 
-6240.116372 -271.527568 -501.526001 13411635.000000 1.000000 1.000000 -1128240.500000 5.000000 1.000000 
-6117.705911 -1391.214794 -33.975708 7363949.000000 7.000000 3.000000 -1129055.875000 0.000000 0.000000 
-6243.095803 -271.528301 -36.178955 12231990.000000 1.000000 1.000000 -1128358.000000 3.000000 1.000000 
-6416.210977 -181.527446 12.484985 12529699.000000 1.000000 1.000000 -1128324.250000 4.000000 1.000000 
-5618.197183 -857.812419 -942.840607 9852071.000000 2.000000 2.000000 -1128683.250000 0.000000 1.000000 
-5626.527261 -366.785747 -998.330704 11337541.000000 7.000000 5.000000 -1128470.750000 0.000000 1.000000 
-5734.026040 -431.143047 -841.798187 6474673.000000 7.000000 4.000000 -1129150.500000 0.000000 0.000000 
-6010.085854 -584.848735 -998.953094 12523411.000000 7.000000 2.000000 -1128325.000000 0.000000 1.000000 
-5670.427651 -1201.625194 -14.725708 4680917.000000 7.000000 1.000000 -1129274.875000 0.000000 0.000000 
-5561.407510 -1101.782024 -108.018799 10444404.000000 7.000000 4.000000 -1128595.125000 0.000000 1.000000 
-6489.809426 -271.474468 -680.491486 13120297.000000 1.000000 1.000000 -1128266.125000 5.000000 1.000000 
-5922.526284 -584.597759 -997.702606 13112881.000000 7.000000 7.000000 -1128266.625000 0.000000 1.000000 
-6247.815896 -384.547344 -999.048599 11936251.000000 7.000000 1.000000 -1128393.750000 0.000000 1.000000 
-6351.894204 -271.557964 -462.388977 11938065.000000 1.000000 1.000000 -1128393.625000 3.000000 1.000000 
-6849.159997 -271.748516 -415.933594 10161817.000000 2.000000 2.000000 -1128636.625000 0.000000 1.000000 
-6369.380105 -271.569072 -483.955322 12233675.000000 1.000000 1.000000 -1128357.875000 4.000000 1.000000 
-6465.233499 -271.491191 -425.525879 13119944.000000 1.000000 1.000000 -1128266.125000 5.000000 1.000000 
-6318.136819 -81.511821 -864.509888 13117709.000000 1.000000 1.000000 -1128266.250000 6.000000 1.000000 
-5898.183511 -1146.770671 -109.010620 9852415.000000 2.000000 2.000000 -1128683.125000 0.000000 1.000000 
-5798.830728 -271.611797 -120.586304 11044232.000000 1.000000 1.000000 -1128510.750000 2.000000 1.000000 
-6229.545876 -494.580425 -999.048492 12231091.000000 7.000000 1.000000 -1128358.000000 0.000000 1.000000 
-5798.255288 -1042.050884 -563.607605 10149638.000000 3.000000 3.000000 -1128637.750000 0.000000 1.000000 
-5704.125405 -648.362712 -107.599365 10744773.000000 7.000000 6.000000 -1128552.375000 0.000000 1.000000 
-6087.608315 -723.127727 -992.778793 13115191.000000 7.000000 5.000000 -1128266.375000 0.000000 1.000000 
-6910.870507 -224.610454 22.561279 12240740.000000 5.000000 4.000000 -1128357.375000 0.000000 1.000000 
-7034.084401 -271.521465 -124.092407 12832941.000000 1.000000 1.000000 -1128293.625000 3.000000 1.000000 
-5745.279458 -629.634136 -108.274170 9259235.000000 7.000000 4.000000 -1128774.875000 0.000000 1.000000 
-5797.873452 -1447.701396 -528.104309 8360439.000000 2.000000 1.000000 -1128913.750000 0.000000 1.000000 
-5685.733071 -371.765972 -15.812744 5878829.000000 7.000000 3.000000 -1129200.125000 0.000000 0.000000 
-5954.578042 -270.520610 -225.886475 8069517.000000 5.000000 1.000000 -1128960.125000 0.000000 1.000000 
-6216.799417 -271.609355 -57.836548 10454973.000000 1.000000 1.000000 -1128593.750000 0.000000 1.000000 
-5897.844399 -691.520122 21.726196 6473479.000000 2.000000 1.000000 -1129150.625000 0.000000 0.000000 
-6348.797891 -273.135967 -692.128693 7072962.000000 7.000000 7.000000 -1129089.250000 0.000000 0.000000 
-6005.958291 -81.503643 -859.301605 12229269.000000 1.000000 1.000000 -1128358.250000 6.000000 1.000000 
-5673.892007 -1189.367107 -15.066284 4680987.000000 7.000000 2.000000 -1129274.875000 0.000000 0.000000 
-5853.977456 -925.608013 -108.020874 10447834.000000 7.000000 4.000000 -1128594.375000 0.000000 1.000000 
-6738.732095 -1390.746990 -234.551270 5576637.000000 7.000000 4.000000 -1129222.125000 0.000000 0.000000 
-6063.527261 -271.492778 -292.665894 9561426.000000 2.000000 1.000000 -1128728.750000 0.000000 1.000000 
-5677.512002 -1190.151012 -16.790283 4680987.000000 7.000000 6.000000 -1129274.875000 0.000000 0.000000 
-7028.588700 -287.508159 55.731323 6477887.000000 7.000000 6.000000 -1129150.250000 0.000000 0.000000 
-5618.718179 -1368.154094 -853.777710 11926310.000000 7.000000 6.000000 -1128395.125000 0.000000 1.000000 
-5798.039102 -324.755352 -227.510925 8963626.000000 1.000000 1.000000 -1128820.500000 0.000000 1.000000 
-5630.248086 -832.166118 -108.252441 10149494.000000 7.000000 3.000000 -1128637.750000 0.000000 1.000000 
-6011.474648 -271.499248 -509.273315 12523755.000000 1.000000 1.000000 -1128324.875000 5.000000 1.000000 
-6777.613198 -1414.008403 44.026855 4681055.000000 7.000000 4.000000 -1129274.875000 0.000000 0.000000 
-5798.085732 -280.093364 -455.176270 7770200.000000 1.000000 1.000000 -1129008.375000 0.000000 1.000000 
-6837.065591 -267.268779 14.949341 9267285.000000 7.000000 4.000000 -1128774.250000 0.000000 1.000000 
-6364.945291 -269.988018 -348.208801 7370951.000000 7.000000 1.000000 -1129054.875000 0.000000 0.000000 
-6885.858300 -1392.619091 -55.683350 6471867.000000 7.000000 7.000000 -1129150.875000 0.000000 0.000000 
-6640.430703 -271.490825 -674.472107 12827557.000000 1.000000 1.000000 -1128294.125000 5.000000 1.000000 
-5983.914346 -81.682109 -945.645996 7073244.000000 7.000000 7.000000 -1129089.250000 0.000000 0.000000 
-5658.455239 -1241.956890 -107.075073 10741414.000000 7.000000 7.000000 -1128553.125000 0.000000 1.000000 
-6030.230630 -81.535259 -862.099304 13113369.000000 1.000000 1.000000 -1128266.500000 6.000000 1.000000 
-6673.691689 -1391.488811 -198.154114 4681056.000000 7.000000 6.000000 -1129274.875000 0.000000 0.000000 
-5702.925088 -593.505718 -14.263794 7664671.000000 7.000000 2.000000 -1129020.000000 0.000000 0.000000 
-6344.580422 -272.632793 -337.847900 7370881.000000 7.000000 7.000000 -1129054.875000 0.000000 0.000000 
-5757.021890 -118.737285 -999.048599 11044731.000000 7.000000 1.000000 -1128510.750000 0.000000 1.000000 
-5618.299355 -696.184917 -989.763199 11631821.000000 5.000000 4.000000 -1128432.250000 0.000000 1.000000 
-6683.963693 -271.517070 -629.330872 7773071.000000 5.000000 3.000000 -1129008.250000 0.000000 1.000000 
-6683.416390 -1393.579814 -202.483276 4681056.000000 7.000000 7.000000 -1129274.875000 0.000000 0.000000 
-5617.866860 -845.952129 -877.875214 8064621.000000 2.000000 1.000000 -1128960.625000 0.000000 1.000000 
-5753.014077 -81.494976 -863.037415 12814609.000000 1.000000 1.000000 -1128295.000000 6.000000 1.000000 
-6006.739297 -271.496318 -762.940491 12523688.000000 1.000000 1.000000 -1128324.875000 5.000000 1.000000 
-5655.059854 -754.325786 -845.856201 7365914.000000 6.000000 2.000000 -1129055.500000 0.000000 0.000000 
-5817.884438 -271.499614 -591.608582 12226116.000000 1.000000 1.000000 -1128358.500000 5.000000 1.000000 
-6669.820901 -81.500591 -852.708191 12533629.000000 1.000000 1.000000 -1128324.000000 5.000000 1.000000 
-6947.768701 -215.936260 25.080933 12241230.000000 5.000000 4.000000 -1128357.375000 0.000000 1.000000 
-6663.996102 -272.658550 -679.044708 7669642.000000 7.000000 7.000000 -1129019.500000 0.000000 0.000000 
-6776.808785 -1399.147289 45.629639 4681125.000000 7.000000 1.000000 -1129274.875000 0.000000 0.000000 
-5797.956094 -622.262065 -720.121094 12225278.000000 7.000000 4.000000 -1128358.625000 0.000000 1.000000 
-6078.120889 -1392.521099 -16.791016 7363809.000000 7.000000 6.000000 -1129055.875000 0.000000 0.000000 
-6591.883615 -271.519756 -248.728027 13416602.000000 1.000000 1.000000 -1128240.125000 4.000000 1.000000 
-5798.028604 -385.110576 -236.332703 8068187.000000 1.000000 1.000000 -1128960.125000 0.000000 1.000000 
-6067.850747 -272.986797 -432.329895 7370112.000000 7.000000 7.000000 -1129054.875000 0.000000 0.000000 
-6629.582803 -271.083599 -640.616608 9564579.000000 3.000000 1.000000 -1128728.625000 0.000000 1.000000 
-6652.433999 -234.441631 8.813843 13417439.000000 2.000000 2.000000 -1128240.000000 0.000000 1.000000 
-6598.160104 -271.636089 -480.466003 10457847.000000 1.000000 1.000000 -1128593.625000 0.000000 1.000000 
-5798.265054 -576.626689 -615.750671 7367453.000000 1.000000 1.000000 -1129055.250000 0.000000 0.000000 
-5618.366006 -1475.879100 -954.285995 11333411.000000 5.000000 4.000000 -1128471.750000 0.000000 1.000000 
-5797.881143 -1395.261913 -361.310974 8360718.000000 2.000000 1.000000 -1128913.625000 0.000000 1.000000 
-5928.397866 -406.654277 -997.607193 11636651.000000 7.000000 7.000000 -1128431.375000 0.000000 1.000000 
-6108.140725 -271.535991 -46.709106 13409810.000000 1.000000 1.000000 -1128240.750000 4.000000 1.000000 
-6079.831521 -584.875469 -998.511093 13114911.000000 7.000000 4.000000 -1128266.500000 0.000000 1.000000 
-6560.450906 -1191.497386 -972.917999 12825041.000000 1.000000 1.000000 -1128294.250000 3.000000 1.000000 
-6443.694802 -271.467021 -654.224609 9563599.000000 3.000000 2.000000 -1128728.625000 0.000000 1.000000 
-7041.180798 -270.897075 -41.975342 7774048.000000 5.000000 2.000000 -1129008.250000 0.000000 1.000000 
-6857.430306 -271.531719 -420.503479 13125544.000000 1.000000 1.000000 -1128265.750000 5.000000 1.000000 
-6308.264321 -1391.607097 -224.013000 5874208.000000 7.000000 6.000000 -1129201.000000 0.000000 0.000000 
-6003.433511 -271.531230 -152.412292 13113361.000000 1.000000 1.000000 -1128266.500000 4.000000 1.000000 
-5591.691445 -756.536724 -108.390259 12813552.000000 6.000000 2.000000 -1128295.250000 0.000000 1.000000 
-5640.268350 -793.000408 -107.296143 12518642.000000 6.000000 6.000000 -1128325.625000 0.000000 1.000000 
-5680.771401 -1164.833812 -15.749146 4681127.000000 7.000000 5.000000 -1129274.875000 0.000000 0.000000 
-5781.284707 -477.464580 -18.140015 7665651.000000 7.000000 5.000000 -1129019.875000 0.000000 0.000000 
-5816.916055 -986.440593 -106.941284 8661366.000000 7.000000 7.000000 -1128865.875000 0.000000 1.000000 
-5683.381143 -1165.390911 -16.991333 4681127.000000 7.000000 7.000000 -1129274.875000 0.000000 0.000000 
-5798.370034 -1407.290996 -143.187622 11631814.000000 5.000000 4.000000 -1128432.250000 0.000000 1.000000 
-5814.283730 -710.485271 -108.218506 11929802.000000 7.000000 3.000000 -1128394.375000 0.000000 1.000000 
-5742.409829 -81.486064 -848.494598 11635739.000000 2.000000 1.000000 -1128431.500000 3.000000 1.000000 
-5797.622842 -640.898784 -565.559326 11042137.000000 4.000000 2.000000 -1128511.000000 0.000000 1.000000 
-6940.239907 -271.561504 -223.046814 12831682.000000 1.000000 1.000000 -1128293.750000 4.000000 1.000000 
-6006.941934 -271.602764 -464.743286 10750026.000000 1.000000 1.000000 -1128551.750000 1.000000 1.000000 
-6814.363107 -1392.428813 31.316895 4681195.000000 7.000000 7.000000 -1129274.750000 0.000000 0.000000 
-6080.651284 -152.219219 -845.388397 5582381.000000 7.000000 6.000000 -1129221.250000 0.000000 0.000000 
-6070.519570 -81.633892 -853.349609 10158040.000000 1.000000 1.000000 -1128636.875000 0.000000 1.000000 
-6024.201333 -165.326885 -845.198212 6774903.000000 6.000000 6.000000 -1129120.875000 0.000000 0.000000 
-5608.730874 -629.736797 -14.405762 5877149.000000 7.000000 5.000000 -1129200.375000 0.000000 0.000000 
-6838.561807 -258.220317 15.875366 8371426.000000 7.000000 7.000000 -1128912.625000 0.000000 1.000000 
-6518.373696 -271.561382 -355.852417 11940094.000000 1.000000 1.000000 -1128393.625000 3.000000 1.000000 
-5797.899453 -1148.162273 -360.926819 9554147.000000 2.000000 1.000000 -1128729.625000 0.000000 1.000000 
-6715.983285 -264.485820 9.510742 12238150.000000 4.000000 3.000000 -1128357.500000 0.000000 1.000000 
-6820.846292 -271.588359 -183.015076 11647423.000000 1.000000 1.000000 -1128430.750000 1.000000 1.000000 
-7068.906800 -1422.725505 58.156250 7366677.000000 7.000000 5.000000 -1129055.375000 0.000000 0.000000 
-7028.268197 -325.024028 55.068726 7372278.000000 7.000000 7.000000 -1129054.750000 0.000000 0.000000 
-5798.204873 -350.963359 -796.990112 11043749.000000 3.000000 3.000000 -1128510.875000 0.000000 1.000000 
-5797.854653 -273.961162 -706.679810 6177732.000000 2.000000 1.000000 -1129175.875000 0.000000 0.000000 
-5798.612344 -406.294536 -559.267029 11930436.000000 5.000000 5.000000 -1128394.250000 0.000000 1.000000 
-5797.593911 -956.872722 -454.200195 11633076.000000 5.000000 2.000000 -1128431.875000 0.000000 1.000000 
-5798.723916 -783.860820 -307.280884 12225064.000000 7.000000 7.000000 -1128358.625000 0.000000 1.000000 
-5795.933267 -941.744609 -106.966919 9555335.000000 7.000000 7.000000 -1128729.375000 0.000000 1.000000 
-5797.265298 -903.440227 -736.283295 10744289.000000 4.000000 1.000000 -1128552.500000 0.000000 1.000000 
-6700.993112 -327.914043 39.455811 7669429.000000 7.000000 6.000000 -1129019.500000 0.000000 0.000000 
-6523.833901 -415.179546 -998.952896 12235081.000000 7.000000 2.000000 -1128357.750000 0.000000 1.000000 
-5682.823037 -1152.269603 -15.442871 4681197.000000 7.000000 5.000000 -1129274.750000 0.000000 0.000000 
-5617.924722 -522.180889 -865.059387 10448120.000000 3.000000 2.000000 -1128594.250000 0.000000 1.000000 
-6310.982095 -273.187847 -364.052307 6476770.000000 7.000000 7.000000 -1129150.250000 0.000000 0.000000 
-5927.672524 -271.514873 -399.650818 13407364.000000 1.000000 1.000000 -1128241.000000 4.000000 1.000000 
-6729.434213 -216.345439 40.845703 6776018.000000 7.000000 6.000000 -1129120.875000 0.000000 0.000000 
-5995.553140 -270.025615 -538.187805 5581610.000000 7.000000 3.000000 -1129221.375000 0.000000 0.000000 
-6335.816812 -229.959453 -7.582520 8071126.000000 7.000000 5.000000 -1128960.000000 0.000000 1.000000 
-5824.106362 -615.836650 -108.025757 11634542.000000 7.000000 4.000000 -1128431.750000 0.000000 1.000000 
-5675.341714 -431.399150 -845.064209 7070234.000000 6.000000 3.000000 -1129089.500000 0.000000 0.000000 
-6620.965310 -1440.537395 35.807495 7663268.000000 7.000000 5.000000 -1129020.250000 0.000000 0.000000 
-5912.769082 -497.392681 -998.511307 11931631.000000 7.000000 4.000000 -1128394.125000 0.000000 1.000000 
-5785.316201 -81.463115 -951.278900 9561081.000000 2.000000 1.000000 -1128728.750000 0.000000 1.000000 
-6888.151101 -1393.229412 1.984253 4681265.000000 7.000000 7.000000 -1129274.750000 0.000000 0.000000 
-5784.640908 -1204.254589 -16.615601 7661520.000000 7.000000 5.000000 -1129020.500000 0.000000 0.000000 
-5767.446694 -215.543071 -841.473297 7071844.000000 6.000000 4.000000 -1129089.250000 0.000000 0.000000 
-5845.965005 -81.511821 -942.061798 12816010.000000 1.000000 1.000000 -1128294.750000 6.000000 1.000000 
-7090.953000 -1391.581798 -24.145020 5875606.000000 7.000000 5.000000 -1129200.625000 0.000000 0.000000 
-5726.170938 -771.993083 -108.392456 12815232.000000 7.000000 2.000000 -1128294.875000 0.000000 1.000000 
-6338.525308 -271.499492 -509.746399 12823285.000000 1.000000 1.000000 -1128294.375000 5.000000 1.000000 
-6876.648507 -1390.632488 -284.409485 4681266.000000 7.000000 5.000000 -1129274.750000 0.000000 0.000000 
-6082.463601 -271.046855 -600.453979 8667109.000000 5.000000 2.000000 -1128865.250000 0.000000 1.000000 
-6404.611794 -271.605571 -791.952393 11346849.000000 1.000000 1.000000 -1128470.000000 2.000000 1.000000 
-5797.934243 -1237.436992 -281.261475 10148586.000000 3.000000 2.000000 -1128638.000000 0.000000 1.000000 
-5798.589639 -574.433940 -294.089172 11338584.000000 5.000000 5.000000 -1128470.625000 0.000000 1.000000 
-6300.671487 -81.512554 -860.392792 12528309.000000 1.000000 1.000000 -1128324.500000 6.000000 1.000000 
-6345.204995 -271.640117 -347.411987 10158596.000000 1.000000 1.000000 -1128636.750000 0.000000 1.000000 
-6072.392617 -271.628643 -131.787720 11343272.000000 1.000000 1.000000 -1128470.125000 2.000000 1.000000 
-5952.211709 -271.527324 -70.309204 12817750.000000 1.000000 1.000000 -1128294.625000 4.000000 1.000000 
-5682.068154 -1139.116802 -13.810425 4681267.000000 7.000000 2.000000 -1129274.750000 0.000000 0.000000 
-5797.885049 -385.614482 -651.182007 10450638.000000 2.000000 1.000000 -1128594.000000 0.000000 1.000000 
-6128.530801 -534.222026 -998.330399 12229691.000000 7.000000 5.000000 -1128358.125000 0.000000 1.000000 
-6480.364297 -540.267925 -998.149902 12529571.000000 7.000000 6.000000 -1128324.250000 0.000000 1.000000 
-5797.923989 -1368.319011 -228.075928 9850526.000000 3.000000 2.000000 -1128683.500000 0.000000 1.000000 
-5798.133340 -866.913372 -724.753113 7766702.000000 1.000000 1.000000 -1129008.750000 0.000000 1.000000 
-6128.529580 -80.690654 -915.920395 8966991.000000 4.000000 1.000000 -1128820.375000 0.000000 1.000000 
-5617.628457 -448.679180 -881.929504 10745060.000000 3.000000 1.000000 -1128552.375000 0.000000 1.000000 
-5898.276650 -301.205547 -20.968628 13407080.000000 6.000000 3.000000 -1128241.000000 0.000000 1.000000 
-5847.885659 -1137.542522 -108.837158 10743584.000000 7.000000 1.000000 -1128552.625000 0.000000 1.000000 
-6945.239007 -1390.324687 -20.418091 4681335.000000 7.000000 4.000000 -1129274.750000 0.000000 0.000000 
-5798.175454 -574.579082 -607.678772 10152438.000000 2.000000 2.000000 -1128637.250000 0.000000 1.000000 
-7061.038098 -271.533062 -68.737549 13423320.000000 1.000000 1.000000 -1128239.250000 4.000000 1.000000 
-6753.882485 -271.546123 -422.793213 13124074.000000 1.000000 1.000000 -1128265.875000 5.000000 1.000000 
-5798.223306 -1071.479595 -799.739014 9852140.000000 2.000000 2.000000 -1128683.250000 0.000000 1.000000 
-6288.787576 -271.503887 -697.788513 8070710.000000 5.000000 3.000000 -1128960.000000 0.000000 1.000000 
-5797.913125 -606.759258 -722.240295 10152229.000000 2.000000 1.000000 -1128637.250000 0.000000 1.000000 
-6965.650598 -1391.194896 -94.764160 7664598.000000 7.000000 4.000000 -1129020.000000 0.000000 0.000000 
-6064.747354 -595.434062 -998.330597 12524111.000000 7.000000 5.000000 -1128324.875000 0.000000 1.000000 
-5542.872109 -1166.555614 -107.829956 12813623.000000 7.000000 5.000000 -1128295.250000 0.000000 1.000000 
-5797.833657 -1201.298809 -108.247192 12520533.000000 7.000000 3.000000 -1128325.250000 0.000000 1.000000 
-5797.656899 -355.831279 -296.818481 11930573.000000 5.000000 2.000000 -1128394.250000 0.000000 1.000000 
-5750.784951 -535.651592 -998.511307 13110571.000000 7.000000 4.000000 -1128266.750000 0.000000 1.000000 
-5654.912148 -1176.025890 -108.755371 12814883.000000 7.000000 1.000000 -1128295.000000 0.000000 1.000000 
-5797.927651 -426.480083 -710.299194 11339288.000000 5.000000 3.000000 -1128470.500000 0.000000 1.000000 
-6268.009622 -271.535869 -558.892578 11937016.000000 1.000000 1.000000 -1128393.750000 3.000000 1.000000 
-5685.931313 -1126.939128 -14.383545 4681337.000000 7.000000 4.000000 -1129274.750000 0.000000 0.000000 
-6507.961526 -269.646343 -697.165009 5880580.000000 7.000000 1.000000 -1129200.000000 0.000000 0.000000 
-5947.336953 -181.087749 -17.790039 7668031.000000 7.000000 3.000000 -1129019.625000 0.000000 0.000000 
-5944.512002 -320.542461 1.967651 5581258.000000 7.000000 5.000000 -1129221.375000 0.000000 0.000000 
-5689.442422 -1127.672527 -16.052979 4681337.000000 7.000000 7.000000 -1129274.750000 0.000000 0.000000 
-6043.566323 -271.524150 -761.048187 13113928.000000 1.000000 1.000000 -1128266.500000 5.000000 1.000000 
-5618.662515 -1111.406475 -957.835098 10741631.000000 5.000000 5.000000 -1128553.000000 0.000000 1.000000 
-5617.925698 -134.532695 -922.073502 11338590.000000 4.000000 3.000000 -1128470.625000 0.000000 1.000000 
-5797.570107 -1200.757091 -726.186005 11039549.000000 5.000000 2.000000 -1128511.625000 0.000000 1.000000 
-6105.660928 -271.099468 -788.662201 9263720.000000 3.000000 1.000000 -1128774.375000 0.000000 1.000000 
-6053.581948 -271.107646 -520.824097 9263438.000000 3.000000 1.000000 -1128774.375000 0.000000 1.000000 
-6497.163674 -272.379741 -596.180786 8967339.000000 5.000000 5.000000 -1128820.375000 0.000000 1.000000 
-6334.512979 -255.990825 -839.459991 7370953.000000 7.000000 5.000000 -1129054.875000 0.000000 0.000000 
-5890.147378 -588.087993 -998.953506 12817131.000000 7.000000 2.000000 -1128294.750000 0.000000 1.000000 
-6157.584512 -271.504741 -511.233887 12820695.000000 1.000000 1.000000 -1128294.500000 5.000000 1.000000 
-6427.462930 -1390.302104 -45.018188 6768948.000000 7.000000 2.000000 -1129121.625000 0.000000 0.000000 
-6236.976296 -525.823345 -997.702499 12231091.000000 7.000000 7.000000 -1128358.000000 0.000000 1.000000 
-6309.185281 -271.501323 -763.706787 13117708.000000 1.000000 1.000000 -1128266.250000 5.000000 1.000000 
-5652.448403 -1086.455120 -108.420166 11631113.000000 7.000000 2.000000 -1128432.375000 0.000000 1.000000 
-5686.951821 -1114.168315 -13.613647 4681407.000000 7.000000 3.000000 -1129274.750000 0.000000 0.000000 
-6104.220925 -271.596538 -689.866302 11047458.000000 1.000000 1.000000 -1128510.625000 2.000000 1.000000 
-5603.347085 -695.579814 -108.012329 13109162.000000 6.000000 4.000000 -1128267.125000 0.000000 1.000000 
-6438.483926 -271.747905 -25.691528 9861514.000000 2.000000 2.000000 -1128682.250000 0.000000 1.000000 
-5950.730874 -577.858013 -998.149506 13113231.000000 7.000000 6.000000 -1128266.500000 0.000000 1.000000 
-5798.773232 -1406.105098 -602.117004 11335368.000000 5.000000 5.000000 -1128471.250000 0.000000 1.000000 
-5823.741982 -219.864727 -841.370697 5879952.000000 7.000000 5.000000 -1129200.000000 0.000000 0.000000 
-6642.163003 -271.459575 -128.395630 9862705.000000 1.000000 1.000000 -1128682.250000 0.000000 1.000000 
-5797.646646 -378.591289 -473.952271 11930505.000000 5.000000 2.000000 -1128394.250000 0.000000 1.000000 
-5717.407998 -473.001201 -997.702896 11633781.000000 7.000000 7.000000 -1128431.750000 0.000000 1.000000 
-6328.685830 -271.487163 -680.109192 13117987.000000 1.000000 1.000000 -1128266.250000 5.000000 1.000000 
-5798.787271 -1327.733806 -277.458130 11632025.000000 5.000000 5.000000 -1128432.125000 0.000000 1.000000 
-6704.569711 -271.492656 -425.051392 13418214.000000 1.000000 1.000000 -1128239.875000 5.000000 1.000000 
-5621.854653 -521.333599 -997.968597 13108891.000000 7.000000 7.000000 -1128267.125000 0.000000 1.000000 
-6224.108987 -226.008770 -11.418701 10752332.000000 6.000000 6.000000 -1128551.625000 0.000000 1.000000 
-5985.384561 -498.723369 -997.703003 11932541.000000 7.000000 7.000000 -1128394.125000 0.000000 1.000000 
-5826.973184 -270.840068 -723.699188 6177802.000000 7.000000 4.000000 -1129175.875000 0.000000 0.000000 
-6335.175271 -81.529277 -861.371490 13412549.000000 1.000000 1.000000 -1128240.375000 6.000000 1.000000 
-6409.141396 -112.425762 -846.289795 7372003.000000 6.000000 2.000000 -1129054.875000 0.000000 0.000000 
-5618.318887 -1650.518100 -915.819794 9847871.000000 4.000000 4.000000 -1128684.000000 0.000000 1.000000 
-5931.362832 -82.422222 -897.426300 8369261.000000 5.000000 5.000000 -1128912.750000 0.000000 1.000000 
-5618.375771 -1648.846900 -942.794601 11036261.000000 5.000000 4.000000 -1128512.375000 0.000000 1.000000 
-5618.150308 -476.546978 -853.519104 10151600.000000 2.000000 2.000000 -1128637.375000 0.000000 1.000000 
-5969.127114 -271.526958 -36.349609 13407920.000000 1.000000 1.000000 -1128240.875000 3.000000 1.000000 
-5692.725259 -1089.403911 -13.874146 4681547.000000 7.000000 5.000000 -1129274.750000 0.000000 0.000000 
-5884.318643 -272.502544 -559.727783 8069239.000000 5.000000 5.000000 -1128960.125000 0.000000 1.000000 
-5759.824502 -737.960491 -108.252075 10151104.000000 7.000000 3.000000 -1128637.500000 0.000000 1.000000 
-6284.532998 -258.355449 -12.809204 8070776.000000 7.000000 3.000000 -1128960.000000 0.000000 1.000000 
-5543.503701 -1387.241100 -14.639160 7361920.000000 7.000000 1.000000 -1129056.250000 0.000000 0.000000 
-5519.297891 -1421.954494 -14.841919 7361640.000000 7.000000 3.000000 -1129056.250000 0.000000 0.000000 
-5798.113931 -493.238140 -557.947693 9558208.000000 1.000000 1.000000 -1128728.875000 0.000000 1.000000 
-6277.441873 -1394.405315 20.368042 6768528.000000 7.000000 1.000000 -1129121.750000 0.000000 0.000000 
-5897.877603 -1060.800884 -168.920227 7765999.000000 1.000000 1.000000 -1129008.875000 0.000000 1.000000 
-5760.615884 -80.761577 -920.896805 5582452.000000 7.000000 5.000000 -1129221.250000 0.000000 0.000000 
-5685.626016 -1192.077007 -108.016846 12223313.000000 7.000000 4.000000 -1128359.000000 0.000000 1.000000 
-7095.395600 -271.543071 -67.890259 13423810.000000 1.000000 1.000000 -1128239.250000 4.000000 1.000000 
-6037.619180 -593.350688 -998.511093 12523761.000000 7.000000 4.000000 -1128324.875000 0.000000 1.000000 
-5798.135293 -795.145977 -745.058014 8662420.000000 1.000000 1.000000 -1128865.750000 0.000000 1.000000 
-6548.811196 -271.462871 -508.216797 9564158.000000 3.000000 2.000000 -1128728.625000 0.000000 1.000000 
-5720.554604 -1145.276409 -108.234741 11927773.000000 7.000000 3.000000 -1128394.750000 0.000000 1.000000 
-6219.655984 -1391.015300 -206.103882 6768389.000000 7.000000 3.000000 -1129121.750000 0.000000 0.000000 
-6096.591897 -194.963848 9.965332 6476839.000000 7.000000 4.000000 -1129150.250000 0.000000 0.000000 
-5816.210244 -533.004619 -997.968994 11930301.000000 7.000000 7.000000 -1128394.250000 0.000000 1.000000 
-5798.220254 -411.354351 -594.846619 11043397.000000 3.000000 3.000000 -1128510.875000 0.000000 1.000000 
-5847.393594 -271.519268 -152.386780 12226531.000000 1.000000 1.000000 -1128358.500000 4.000000 1.000000 
-5797.641030 -340.259502 -276.894226 11635313.000000 5.000000 2.000000 -1128431.625000 0.000000 1.000000 
-5888.308877 -621.414165 -997.702805 12521801.000000 7.000000 7.000000 -1128325.000000 0.000000 1.000000 
-5841.324746 -532.149517 -15.707642 6176259.000000 7.000000 2.000000 -1129176.125000 0.000000 0.000000 
-6236.650430 -86.189067 -997.703201 11346291.000000 3.000000 2.000000 -1128470.000000 0.000000 1.000000 
-5617.907388 -130.504253 -900.245605 10747090.000000 2.000000 1.000000 -1128552.000000 0.000000 1.000000 
-5700.673623 -1052.108196 -13.991211 4681757.000000 7.000000 7.000000 -1129274.625000 0.000000 0.000000 
-5972.520547 -271.550396 -326.227173 12228283.000000 1.000000 1.000000 -1128358.375000 4.000000 1.000000 
-6100.371377 -272.967876 -610.710815 7667963.000000 7.000000 7.000000 -1129019.625000 0.000000 0.000000 
-6171.842629 -271.471294 -647.788208 9264069.000000 3.000000 2.000000 -1128774.375000 0.000000 1.000000 
-5698.438516 -1038.707683 -11.729858 4681827.000000 7.000000 3.000000 -1129274.625000 0.000000 0.000000 
-5618.070229 -239.653423 -892.290100 8068401.000000 1.000000 1.000000 -1128960.125000 0.000000 1.000000 
-6319.959573 -271.558574 -59.090942 13412750.000000 1.000000 1.000000 -1128240.250000 4.000000 1.000000 
-6433.536782 -316.436626 -998.953094 11938841.000000 7.000000 2.000000 -1128393.625000 0.000000 1.000000 
-5834.034951 -273.145244 -216.621704 6177800.000000 7.000000 7.000000 -1129175.875000 0.000000 0.000000 
-5702.910684 -1039.593975 -13.851807 4681827.000000 7.000000 7.000000 -1129274.625000 0.000000 0.000000 
-6427.840798 -270.073223 -536.728027 6178780.000000 7.000000 2.000000 -1129175.875000 0.000000 0.000000 
-6731.067605 -270.338237 -629.354187 7773211.000000 5.000000 1.000000 -1129008.250000 0.000000 1.000000 
-5738.320962 -81.477764 -942.767197 12519840.000000 1.000000 1.000000 -1128325.375000 6.000000 1.000000 
-6188.112283 -272.011455 -25.835205 8070356.000000 5.000000 4.000000 -1128960.000000 0.000000 1.000000 
-6381.687173 -271.481060 -733.911499 8668370.000000 5.000000 3.000000 -1128865.250000 0.000000 1.000000 
-5665.440835 -736.738079 -845.899597 7366054.000000 6.000000 4.000000 -1129055.375000 0.000000 0.000000 
-6664.773904 -269.916851 -510.975586 7371721.000000 7.000000 1.000000 -1129054.875000 0.000000 0.000000 
-5686.085732 -938.164714 -8.918701 7067220.000000 7.000000 2.000000 -1129090.000000 0.000000 0.000000 
-5584.664956 -1165.188610 -108.249023 11926233.000000 7.000000 3.000000 -1128395.125000 0.000000 1.000000 
-6874.122704 -271.546855 -261.182983 12240043.000000 1.000000 1.000000 -1128357.375000 3.000000 1.000000 
-5702.114541 -1013.539775 -11.099854 4681967.000000 7.000000 3.000000 -1129274.500000 0.000000 0.000000 
-5482.258828 -1308.800090 -16.200684 7064420.000000 7.000000 1.000000 -1129090.500000 0.000000 0.000000 
-5782.916787 -478.346538 -997.607697 13406251.000000 7.000000 7.000000 -1128241.000000 0.000000 1.000000 
-6542.499490 -272.066997 -682.874115 8071550.000000 5.000000 4.000000 -1128960.000000 0.000000 1.000000 
-6332.465005 -272.693340 -450.023926 7772020.000000 5.000000 5.000000 -1129008.250000 0.000000 1.000000 
-6087.623025 -258.953350 -21.365356 10156843.000000 7.000000 5.000000 -1128636.875000 0.000000 1.000000 
-5811.645547 -1394.999309 -17.180298 6767199.000000 7.000000 7.000000 -1129122.000000 0.000000 0.000000 
-6611.167306 -1393.326488 -365.423279 5874768.000000 7.000000 7.000000 -1129200.875000 0.000000 0.000000 
-6246.609719 -190.505352 18.907349 5283897.000000 7.000000 1.000000 -1129240.375000 0.000000 0.000000 
-5618.139443 -487.167583 -852.953888 10151530.000000 2.000000 2.000000 -1128637.375000 0.000000 1.000000 
-6868.158303 -271.539653 -406.722412 12830704.000000 1.000000 1.000000 -1128293.875000 4.000000 1.000000 
-6520.733193 -270.531841 -566.411377 8668929.000000 5.000000 1.000000 -1128865.250000 0.000000 1.000000 
-6465.617776 -1393.061504 3.006592 7067078.000000 7.000000 7.000000 -1129090.000000 0.000000 0.000000 
-5661.387490 -1427.311397 -15.876221 5574538.000000 7.000000 6.000000 -1129222.750000 0.000000 0.000000 
-6137.944192 -271.529521 -338.726685 12820413.000000 1.000000 1.000000 -1128294.500000 5.000000 1.000000 
-5846.930947 -271.964946 -562.703918 8069099.000000 5.000000 4.000000 -1128960.125000 0.000000 1.000000 
-5617.907998 -145.108867 -885.834290 10450640.000000 2.000000 1.000000 -1128594.000000 0.000000 1.000000 
-5830.120645 -1013.831584 -10.799438 6471449.000000 7.000000 2.000000 -1129150.875000 0.000000 0.000000 
-6136.522317 -1191.534099 -971.630402 13412271.000000 3.000000 3.000000 -1128240.375000 2.000000 1.000000 
-5666.010659 -447.785991 -16.391357 5878339.000000 7.000000 1.000000 -1129200.250000 0.000000 0.000000 
-5996.070352 -1391.435192 -37.038818 7065679.000000 7.000000 5.000000 -1129090.250000 0.000000 0.000000 
-6097.385293 -1191.492809 -973.267899 13115821.000000 1.000000 1.000000 -1128266.375000 3.000000 1.000000 
-5708.351724 -975.940227 -10.563354 4682177.000000 7.000000 4.000000 -1129274.500000 0.000000 0.000000 
-5741.722451 -411.044902 -842.053009 6474813.000000 7.000000 6.000000 -1129150.375000 0.000000 0.000000 
-5583.142251 -1337.472789 -16.863647 7362340.000000 7.000000 4.000000 -1129056.125000 0.000000 0.000000 
-6677.295114 -1392.596813 -228.532227 7663689.000000 7.000000 6.000000 -1129020.125000 0.000000 0.000000 
-6557.916177 -271.531230 -562.877930 12236126.000000 1.000000 1.000000 -1128357.625000 4.000000 1.000000 
-5798.055459 -564.593120 -201.971985 8962016.000000 1.000000 1.000000 -1128820.750000 0.000000 1.000000 
-5820.078408 -286.979473 -998.330505 11340271.000000 7.000000 5.000000 -1128470.375000 0.000000 1.000000 
-5789.220010 -668.478984 -12.670410 6175349.000000 7.000000 3.000000 -1129176.250000 0.000000 0.000000 
-6064.127603 -271.579204 -364.045898 11638954.000000 1.000000 1.000000 -1128431.250000 3.000000 1.000000 
-5898.235879 -754.010601 71.268555 5876938.000000 2.000000 2.000000 -1129200.375000 0.000000 0.000000 
-5797.956460 -587.493755 -593.647522 11338517.000000 5.000000 3.000000 -1128470.625000 0.000000 1.000000 
-5797.328042 -439.692974 -419.848572 11339215.000000 5.000000 1.000000 -1128470.500000 0.000000 1.000000 
-6776.872689 -1391.597301 -84.629395 6173387.000000 7.000000 5.000000 -1129176.625000 0.000000 0.000000 
-5707.967202 -81.640850 -964.688293 9858021.000000 1.000000 1.000000 -1128682.375000 0.000000 1.000000 
-6255.934121 -248.039653 18.667603 6774899.000000 7.000000 2.000000 -1129120.875000 0.000000 0.000000 
-6085.392678 -81.495586 -917.397598 8966781.000000 5.000000 3.000000 -1128820.375000 0.000000 1.000000 
-5902.127847 -271.475200 -115.496460 7770618.000000 5.000000 3.000000 -1129008.375000 0.000000 1.000000 
-5928.942178 -271.590801 -797.478912 11045639.000000 1.000000 1.000000 -1128510.625000 2.000000 1.000000 
-5710.406045 -937.572124 -8.124878 4682387.000000 7.000000 1.000000 -1129274.375000 0.000000 0.000000 
-5694.376016 -276.921978 5.840454 8366945.000000 1.000000 1.000000 -1128912.875000 0.000000 1.000000 
-5712.710122 -938.000713 -9.215698 4682387.000000 7.000000 3.000000 -1129274.375000 0.000000 0.000000 
-5798.666543 -934.914592 -329.845215 11337045.000000 5.000000 5.000000 -1128470.875000 0.000000 1.000000 
-5714.521768 -938.337688 -10.073486 4682387.000000 7.000000 5.000000 -1129274.375000 0.000000 0.000000 
-6959.230599 -183.440044 27.910645 8372266.000000 7.000000 5.000000 -1128912.625000 0.000000 1.000000 
-6995.086999 -271.593730 -166.044495 11055434.000000 1.000000 1.000000 -1128510.250000 0.000000 1.000000 
-6055.207437 -271.478008 -680.451385 12819227.000000 1.000000 1.000000 -1128294.500000 5.000000 1.000000 
-5798.154824 -629.995830 -676.596405 9557299.000000 2.000000 2.000000 -1128729.125000 0.000000 1.000000 
-5869.113931 -81.515728 -942.181503 12816360.000000 1.000000 1.000000 -1128294.750000 6.000000 1.000000 
-6687.884713 -271.629741 -97.754395 11052913.000000 1.000000 1.000000 -1128510.375000 1.000000 1.000000 
