ply
format ascii 1.0
comment Created by CloudCompare v2.12 alpha
comment Created 6/15/2021 10:58 PM
obj_info Generated by CloudCompare!
element vertex 506
property double x
property double y
property double z
property float scalar_fullwaveIndex
property float scalar_NumberOfReturns
property float scalar_ReturnNumber
property float scalar_GpsTime
property float scalar_Intensity
end_header
6002.102500 -375.093364 -283.278870 24444.000000 1.000000 1.000000 -1251154.250000 6.000000 
6524.890586 -551.469219 -866.766113 722710.000000 1.000000 1.000000 -1250916.875000 4.000000 
6652.394492 -1238.345012 -998.199493 740838.000000 7.000000 6.000000 -1250912.000000 0.000000 
6486.141562 -351.460552 -486.566711 719007.000000 1.000000 1.000000 -1250917.750000 3.000000 
6101.995078 -826.464214 118.001709 733716.000000 1.000000 1.000000 -1250913.625000 6.000000 
6218.830039 -249.651714 -998.772003 24502.000000 7.000000 2.000000 -1251154.250000 0.000000 
6877.031211 -266.133525 -880.471893 710250.000000 1.000000 1.000000 -1250919.375000 8.000000 
6223.468711 -247.037334 -998.459396 24502.000000 7.000000 4.000000 -1251154.250000 0.000000 
6424.167930 -1391.600902 -534.389709 801170.000000 1.000000 1.000000 -1250902.875000 3.000000 
6887.903281 -1417.945507 -727.206299 807608.000000 2.000000 1.000000 -1250901.750000 0.000000 
6619.831992 -80.363384 -920.148102 588807.000000 7.000000 2.000000 -1250922.250000 0.000000 
6669.722617 -271.570171 -618.877075 794242.000000 1.000000 1.000000 -1250903.625000 6.000000 
6877.075156 -1285.486003 -875.100494 740983.000000 1.000000 1.000000 -1250912.000000 44.000000 
5925.535117 -80.982769 -942.710297 587547.000000 5.000000 2.000000 -1250922.250000 0.000000 
6375.536094 -351.474590 -777.418091 720611.000000 1.000000 1.000000 -1250917.375000 3.000000 
7050.407187 -1471.518199 -38.325195 748568.000000 7.000000 5.000000 -1250910.750000 0.000000 
6616.572227 -351.456157 -140.099976 716914.000000 1.000000 1.000000 -1250918.125000 3.000000 
6217.031211 -1445.556606 -998.510193 748537.000000 7.000000 2.000000 -1250910.750000 0.000000 
5961.524375 -1040.592327 -108.002808 580762.000000 7.000000 5.000000 -1250923.125000 0.000000 
6002.043906 -371.491924 -599.096497 24509.000000 1.000000 1.000000 -1251154.250000 7.000000 
5957.798789 -1049.332073 -108.001831 580692.000000 7.000000 5.000000 -1250923.125000 0.000000 
6653.288047 -330.269756 -998.511093 715847.000000 7.000000 2.000000 -1250918.375000 0.000000 
6002.073203 -371.337261 -412.166626 24512.000000 1.000000 1.000000 -1251154.250000 6.000000 
6002.117148 -371.266338 -347.922180 24513.000000 1.000000 1.000000 -1251154.250000 6.000000 
6641.191367 -271.538555 -494.582397 793754.000000 1.000000 1.000000 -1250903.625000 5.000000 
6002.051719 -1279.600109 -643.954010 301750.000000 1.000000 1.000000 -1251051.875000 1.000000 
6453.000937 -351.473979 -3.376953 719505.000000 1.000000 1.000000 -1250917.625000 2.000000 
6102.061484 -924.628276 -778.580414 735941.000000 1.000000 1.000000 -1250913.000000 14.000000 
6605.970664 -272.659771 -573.956421 587479.000000 6.000000 5.000000 -1250922.250000 0.000000 
6608.760703 -1191.556987 -970.416107 802215.000000 1.000000 1.000000 -1250902.625000 4.000000 
6084.722617 -271.580791 -312.656311 785635.000000 1.000000 1.000000 -1250904.375000 2.000000 
6221.616172 -243.786357 -998.460205 24572.000000 7.000000 4.000000 -1251154.125000 0.000000 
6676.553672 -1471.653896 -361.689819 748975.000000 7.000000 4.000000 -1250910.625000 0.000000 
6810.212852 -351.477153 -477.477478 713339.000000 1.000000 1.000000 -1250918.875000 6.000000 
6611.787070 -1391.593792 -209.127991 803624.000000 1.000000 1.000000 -1250902.500000 3.000000 
6280.557578 -351.452251 -369.430908 721878.000000 1.000000 1.000000 -1250917.125000 2.000000 
6508.811484 -519.242168 -998.425797 722217.000000 7.000000 3.000000 -1250917.000000 0.000000 
6187.682578 -181.576641 2.444946 785710.000000 1.000000 1.000000 -1250904.375000 2.000000 
5822.038047 -469.644268 -919.427902 24574.000000 1.000000 1.000000 -1251154.125000 10.000000 
6221.158164 -1390.796306 -998.645294 747067.000000 7.000000 1.000000 -1250911.000000 0.000000 
6879.397422 -234.841777 9.739258 797613.000000 1.000000 1.000000 -1250903.250000 2.000000 
6702.913047 -271.635601 -375.995728 272298.000000 1.000000 1.000000 -1251054.000000 0.000000 
6805.521445 -272.705669 -379.346130 587830.000000 6.000000 5.000000 -1250922.250000 0.000000 
7192.862266 -1440.175197 -249.423584 746467.000000 1.000000 1.000000 -1250911.125000 43.000000 
5997.872031 -86.298076 -998.331406 781985.000000 7.000000 4.000000 -1250905.125000 0.000000 
6861.633750 -223.280376 9.759277 797123.000000 1.000000 1.000000 -1250903.250000 2.000000 
6132.063437 -1040.050029 -367.936096 738469.000000 1.000000 1.000000 -1250912.500000 11.000000 
6877.034141 -521.789043 -947.471100 715779.000000 1.000000 1.000000 -1250918.375000 15.000000 
6707.184531 -273.292705 -998.645798 713747.000000 7.000000 1.000000 -1250918.750000 0.000000 
6829.770469 -155.844219 -998.645599 709197.000000 7.000000 1.000000 -1250919.625000 0.000000 
6440.765586 -1391.579998 -363.234314 801382.000000 1.000000 1.000000 -1250902.750000 3.000000 
6877.075156 -1211.076000 -932.143402 737971.000000 1.000000 1.000000 -1250912.500000 44.000000 
6789.375937 -351.482036 -793.597687 713752.000000 1.000000 1.000000 -1250918.750000 8.000000 
6877.062461 -1304.177715 -906.010300 741752.000000 1.000000 1.000000 -1250911.750000 46.000000 
7069.540977 -230.952007 20.111206 588532.000000 7.000000 7.000000 -1250922.250000 0.000000 
6128.993125 -81.591289 -858.307892 269493.000000 1.000000 1.000000 -1251054.125000 1.000000 
6656.250937 -210.486187 0.485718 793202.000000 1.000000 1.000000 -1250903.750000 1.000000 
6223.580039 -238.370220 -998.203201 24642.000000 7.000000 6.000000 -1251154.125000 0.000000 
6816.248984 -551.466655 -865.515991 717741.000000 1.000000 1.000000 -1250918.000000 8.000000 
6228.261680 -235.713848 -997.887207 24642.000000 7.000000 7.000000 -1251154.125000 0.000000 
6229.151328 -235.209209 -997.827103 24642.000000 7.000000 7.000000 -1251154.125000 0.000000 
6778.594687 -351.498760 -702.825897 713964.000000 1.000000 1.000000 -1250918.750000 7.000000 
6871.040977 -1404.266002 -753.743896 745957.000000 1.000000 1.000000 -1250911.125000 44.000000 
6990.485312 -351.460308 -186.840820 709426.000000 1.000000 1.000000 -1250919.500000 6.000000 
6637.968711 -1350.015392 -998.473694 744758.000000 6.000000 2.000000 -1250911.375000 0.000000 
6719.933555 -271.479351 -458.352478 272437.000000 1.000000 1.000000 -1251054.000000 0.000000 
6591.036094 -271.563945 -423.299377 792915.000000 1.000000 1.000000 -1250903.750000 5.000000 
5833.258750 -155.411357 -998.586395 723476.000000 7.000000 3.000000 -1250916.750000 0.000000 
6349.373984 -271.602153 -123.623413 269152.000000 1.000000 1.000000 -1251054.125000 1.000000 
6101.970664 -661.998516 156.244385 730146.000000 1.000000 1.000000 -1250914.500000 5.000000 
6877.091758 -1406.279094 -996.349503 746019.000000 1.000000 1.000000 -1250911.125000 51.000000 
6104.200156 -814.216716 -666.527710 733423.000000 1.000000 1.000000 -1250913.625000 13.000000 
6084.847617 -640.529827 -107.750122 261872.000000 5.000000 5.000000 -1251055.125000 0.000000 
6120.158164 -375.428081 -506.911072 724255.000000 1.000000 1.000000 -1250916.500000 8.000000 
6948.728477 -271.528667 -600.953796 799423.000000 1.000000 1.000000 -1250903.125000 9.000000 
5853.623008 -115.163433 -998.333206 722636.000000 7.000000 5.000000 -1250916.875000 0.000000 
6770.932578 -351.467632 -205.075989 714114.000000 1.000000 1.000000 -1250918.750000 4.000000 
6353.532187 -1471.691997 -666.143890 749175.000000 7.000000 3.000000 -1250910.625000 0.000000 
6216.069297 -238.333477 -998.585495 24712.000000 7.000000 3.000000 -1251154.125000 0.000000 
6385.430625 -1493.913204 -16.077759 749818.000000 1.000000 1.000000 -1250910.250000 4.000000 
6219.811484 -236.202983 -998.332703 24712.000000 7.000000 5.000000 -1251154.125000 0.000000 
6002.098594 -484.841167 -549.056702 262707.000000 1.000000 1.000000 -1251055.000000 2.000000 
6132.009727 -502.041484 -289.189514 726569.000000 1.000000 1.000000 -1250915.625000 7.000000 
6630.728477 -1434.085506 -998.408905 747698.000000 7.000000 3.000000 -1250911.000000 0.000000 
6516.774375 -511.970439 -998.646301 721937.000000 7.000000 1.000000 -1250917.125000 0.000000 
5822.040977 -462.621685 -972.238495 24713.000000 1.000000 1.000000 -1251154.125000 10.000000 
5822.037070 -462.582012 -919.046799 24714.000000 1.000000 1.000000 -1251154.125000 10.000000 
6652.387656 -1248.580211 -998.408005 741188.000000 7.000000 3.000000 -1250911.875000 0.000000 
6002.065391 -359.986309 -778.452209 24716.000000 1.000000 1.000000 -1251154.125000 8.000000 
6002.062461 -359.941631 -718.800110 24717.000000 1.000000 1.000000 -1251154.125000 7.000000 
5801.329062 -1312.111400 -66.235229 301544.000000 7.000000 6.000000 -1251052.125000 0.000000 
6779.458945 -1191.542491 -900.132004 804666.000000 1.000000 1.000000 -1250902.250000 5.000000 
6035.315391 -865.457378 -107.680298 582162.000000 7.000000 6.000000 -1250922.875000 0.000000 
6678.663047 -1391.516094 -719.596313 804528.000000 1.000000 1.000000 -1250902.375000 4.000000 
6854.779258 -1191.568004 -902.674606 805786.000000 1.000000 1.000000 -1250902.000000 5.000000 
6002.105430 -359.639385 -345.929504 24723.000000 1.000000 1.000000 -1251154.125000 6.000000 
6002.097617 -359.597759 -280.406494 24724.000000 1.000000 1.000000 -1251154.125000 6.000000 
7011.237266 -271.577861 -203.966187 800690.000000 1.000000 1.000000 -1250902.875000 7.000000 
6684.597617 -1471.826107 -366.470825 748975.000000 7.000000 1.000000 -1250910.625000 0.000000 
6223.065391 -1301.658397 -998.160004 744687.000000 7.000000 6.000000 -1250911.375000 0.000000 
6131.998984 -710.848796 -141.665283 730912.000000 1.000000 1.000000 -1250914.250000 7.000000 
6114.593711 -833.638591 -562.789490 733775.000000 1.000000 1.000000 -1250913.500000 12.000000 
6109.756797 -781.586528 -611.000183 732654.000000 1.000000 1.000000 -1250913.875000 12.000000 
5988.476523 -1065.747417 -108.593872 256481.000000 5.000000 1.000000 -1251056.375000 0.000000 
6490.694297 -351.465679 -433.899109 718938.000000 1.000000 1.000000 -1250917.750000 3.000000 
6102.003867 -671.377788 -762.221008 730341.000000 1.000000 1.000000 -1250914.375000 11.000000 
6088.357383 -181.193828 -998.838699 784435.000000 7.000000 1.000000 -1250904.500000 0.000000 
6472.287070 -351.458843 -536.121399 719216.000000 1.000000 1.000000 -1250917.625000 3.000000 
6002.090781 -1131.111309 -264.566711 580271.000000 1.000000 1.000000 -1250923.125000 0.000000 
6241.776328 -351.465557 -357.244873 722368.000000 1.000000 1.000000 -1250917.000000 2.000000 
6877.079062 -1214.564189 -962.302704 738110.000000 1.000000 1.000000 -1250912.500000 45.000000 
5822.091758 -458.968364 -865.315491 24785.000000 1.000000 1.000000 -1251154.000000 10.000000 
6101.982383 -991.392192 157.230591 737497.000000 1.000000 1.000000 -1250912.625000 6.000000 
6002.114219 -933.168193 -723.388794 257874.000000 1.000000 1.000000 -1251056.000000 1.000000 
6002.045859 -356.014751 -658.178986 24788.000000 1.000000 1.000000 -1251154.000000 7.000000 
6253.594687 -80.428569 -932.070496 588177.000000 7.000000 2.000000 -1250922.250000 0.000000 
6729.239219 -271.643657 -195.578003 272510.000000 1.000000 1.000000 -1251054.000000 0.000000 
6877.609336 -351.449443 -22.162231 711948.000000 1.000000 1.000000 -1250919.125000 4.000000 
6002.060508 -355.821025 -409.716919 24792.000000 1.000000 1.000000 -1251154.000000 6.000000 
6002.104453 -355.749248 -345.258606 24793.000000 1.000000 1.000000 -1251154.000000 6.000000 
7025.915000 -351.479961 -400.731079 708582.000000 1.000000 1.000000 -1250919.625000 9.000000 
6002.084922 -355.667949 -212.850220 24795.000000 1.000000 1.000000 -1251154.000000 5.000000 
5949.694297 -765.369426 -107.473267 258932.000000 4.000000 4.000000 -1251055.750000 0.000000 
6625.134727 -81.458599 -968.370804 274111.000000 2.000000 1.000000 -1251053.875000 0.000000 
6208.605430 -233.993145 -998.839600 24852.000000 7.000000 1.000000 -1251154.000000 0.000000 
6209.590781 -233.428447 -998.772903 24852.000000 7.000000 2.000000 -1251154.000000 0.000000 
7125.638633 -351.489116 -240.709778 706066.000000 1.000000 1.000000 -1250920.000000 8.000000 
6733.826133 -1495.337200 1.415894 749823.000000 1.000000 1.000000 -1250910.250000 9.000000 
6498.533164 -271.614971 -81.689209 270552.000000 1.000000 1.000000 -1251054.125000 0.000000 
7209.939414 -1441.454799 -222.685730 746468.000000 1.000000 1.000000 -1250911.125000 41.000000 
6219.873984 -227.534160 -998.077103 24852.000000 7.000000 7.000000 -1251154.000000 0.000000 
6222.683555 -225.923320 -997.886902 24852.000000 7.000000 7.000000 -1251154.000000 0.000000 
7240.483359 -308.408184 -174.638123 806011.000000 1.000000 1.000000 -1250902.000000 2.000000 
6599.327109 -271.588359 -608.604797 793052.000000 1.000000 1.000000 -1250903.750000 5.000000 
6682.239219 -272.138042 -567.779602 587619.000000 6.000000 4.000000 -1250922.250000 0.000000 
7093.821250 -270.266460 -348.866089 588320.000000 7.000000 2.000000 -1250922.250000 0.000000 
6002.060508 -352.202251 -777.832886 24856.000000 1.000000 1.000000 -1251154.000000 8.000000 
6002.058555 -352.157085 -718.080811 24857.000000 1.000000 1.000000 -1251154.000000 7.000000 
6172.234336 -271.599712 -739.674286 786749.000000 1.000000 1.000000 -1250904.250000 3.000000 
6131.984336 -652.040691 -193.428101 729651.000000 1.000000 1.000000 -1250914.625000 7.000000 
7246.866172 -351.455425 -78.328247 702710.000000 1.000000 1.000000 -1250920.375000 7.000000 
6045.521445 -81.576152 -873.390808 782477.000000 1.000000 1.000000 -1250905.000000 2.000000 
6677.786094 -299.533306 -998.335495 714797.000000 7.000000 4.000000 -1250918.625000 0.000000 
6763.201133 -1471.846797 -80.447266 748912.000000 7.000000 1.000000 -1250910.625000 0.000000 
6002.094687 -351.811260 -278.952209 24864.000000 1.000000 1.000000 -1251154.000000 6.000000 
6237.589805 -271.584941 -690.141296 268025.000000 1.000000 1.000000 -1251054.250000 1.000000 
7191.214805 -1453.785793 -251.598206 812234.000000 3.000000 3.000000 -1250901.125000 0.000000 
6002.082969 -281.658916 -622.554688 586219.000000 1.000000 1.000000 -1250922.375000 1.000000 
6597.542930 -1471.773693 -737.578400 749035.000000 7.000000 2.000000 -1250910.625000 0.000000 
6734.553672 -1391.538311 -803.184387 805297.000000 1.000000 1.000000 -1250902.125000 4.000000 
6563.447227 -1191.554485 -969.179001 801585.000000 1.000000 1.000000 -1250902.750000 4.000000 
6212.354453 -227.531230 -998.459793 24922.000000 7.000000 4.000000 -1251154.000000 0.000000 
6661.342734 -1207.342388 -998.472702 739718.000000 7.000000 2.000000 -1250912.250000 0.000000 
6216.142539 -225.352642 -998.203293 24922.000000 7.000000 6.000000 -1251154.000000 0.000000 
6218.014609 -224.275859 -998.076508 24922.000000 7.000000 7.000000 -1251154.000000 0.000000 
6220.810508 -222.667583 -997.887100 24922.000000 7.000000 7.000000 -1251154.000000 0.000000 
6221.697227 -222.157939 -997.827103 24922.000000 7.000000 7.000000 -1251154.000000 0.000000 
5822.078086 -239.087383 -936.789795 263612.000000 1.000000 1.000000 -1251054.750000 4.000000 
5822.081992 -451.917949 -918.463501 24924.000000 1.000000 1.000000 -1251154.000000 10.000000 
6121.192344 -722.233379 -497.002625 731256.000000 1.000000 1.000000 -1250914.250000 11.000000 
6821.670859 -272.065654 -831.037689 711511.000000 1.000000 1.000000 -1250919.125000 8.000000 
6244.520469 -1177.777599 -998.425598 741327.000000 7.000000 3.000000 -1250911.875000 0.000000 
7098.890586 -283.198589 -396.677185 705432.000000 1.000000 1.000000 -1250920.125000 9.000000 
6131.988242 -473.773418 -156.250916 726011.000000 1.000000 1.000000 -1250915.750000 6.000000 
6951.588828 -1465.184001 -627.577393 748412.000000 1.000000 1.000000 -1250910.750000 49.000000 
6902.852500 -271.588237 -113.888550 798521.000000 1.000000 1.000000 -1250903.125000 5.000000 
7031.577109 -351.467021 -255.577209 708445.000000 1.000000 1.000000 -1250919.625000 7.000000 
6009.491172 -1053.974895 -107.423096 256831.000000 6.000000 6.000000 -1251056.250000 0.000000 
6002.097617 -347.905742 -278.218384 24934.000000 1.000000 1.000000 -1251154.000000 6.000000 
6002.074180 -347.872661 -211.280701 24935.000000 1.000000 1.000000 -1251154.000000 5.000000 
6877.032187 -406.014873 -936.888306 713119.000000 1.000000 1.000000 -1250918.875000 11.000000 
6693.940391 -1391.525615 -801.381409 804737.000000 1.000000 1.000000 -1250902.250000 4.000000 
6568.103477 -436.231060 -998.510406 719487.000000 7.000000 2.000000 -1250917.625000 0.000000 
6659.767539 -1202.877697 -998.199493 739578.000000 7.000000 6.000000 -1250912.250000 0.000000 
6208.620078 -225.366802 -998.586395 24992.000000 7.000000 3.000000 -1251153.875000 0.000000 
6638.880820 -345.482891 -998.425201 716407.000000 7.000000 3.000000 -1250918.250000 0.000000 
6903.498008 -1445.815807 -702.959991 747639.000000 1.000000 1.000000 -1250911.000000 46.000000 
6214.274375 -222.103252 -998.203094 24992.000000 7.000000 6.000000 -1251153.875000 0.000000 
6587.815391 -351.448223 -664.640106 717394.000000 1.000000 1.000000 -1250918.125000 5.000000 
6697.135703 -241.004131 0.136597 794322.000000 1.000000 1.000000 -1250903.625000 1.000000 
6679.163047 -551.476421 -929.016296 720259.000000 1.000000 1.000000 -1250917.500000 6.000000 
6795.343711 -180.132061 -998.244293 710317.000000 7.000000 5.000000 -1250919.375000 0.000000 
7114.998984 -351.467021 -335.291626 706344.000000 1.000000 1.000000 -1250920.000000 9.000000 
5822.080039 -448.318584 -864.601807 24995.000000 1.000000 1.000000 -1251153.875000 9.000000 
6333.217734 -432.758525 -998.459503 791015.000000 7.000000 4.000000 -1250903.875000 0.000000 
6002.052695 -344.347271 -717.355713 24997.000000 1.000000 1.000000 -1251153.875000 7.000000 
6002.052695 -344.300762 -656.937714 24998.000000 1.000000 1.000000 -1251153.875000 7.000000 
6002.087852 -344.233745 -595.859619 24999.000000 1.000000 1.000000 -1251153.875000 7.000000 
6601.345664 -271.458965 -643.068390 271455.000000 1.000000 1.000000 -1251054.000000 0.000000 
6007.681602 -711.913188 -108.048096 260192.000000 5.000000 3.000000 -1251055.500000 0.000000 
6002.064414 -344.107646 -407.847107 25002.000000 1.000000 1.000000 -1251153.875000 6.000000 
6002.099570 -344.040630 -343.229126 25003.000000 1.000000 1.000000 -1251153.875000 6.000000 
6132.000937 -777.813030 -90.586548 732383.000000 1.000000 1.000000 -1250913.875000 7.000000 
6640.572227 -1313.878307 -998.272003 743498.000000 7.000000 5.000000 -1250911.500000 0.000000 
6102.026328 -569.987041 -754.281006 728241.000000 1.000000 1.000000 -1250915.000000 10.000000 
7199.247031 -1391.535411 -103.462891 812096.000000 1.000000 1.000000 -1250901.125000 4.000000 
7031.058555 -271.491313 -402.063171 274747.000000 2.000000 1.000000 -1251053.875000 0.000000 
6108.327109 -398.180156 -625.152527 724813.000000 1.000000 1.000000 -1250916.250000 8.000000 
6544.258750 -351.479717 -108.588745 718104.000000 1.000000 1.000000 -1250917.875000 2.000000 
6558.566367 -451.929668 -998.645798 719977.000000 7.000000 1.000000 -1250917.500000 0.000000 
6111.456016 -612.204082 -593.822388 729014.000000 1.000000 1.000000 -1250914.750000 10.000000 
7037.145469 -351.456279 19.282959 708310.000000 1.000000 1.000000 -1250919.750000 4.000000 
6214.266562 -217.776958 -998.076401 25062.000000 7.000000 7.000000 -1251153.875000 0.000000 
6237.495078 -272.090312 -439.294678 586780.000000 6.000000 4.000000 -1250922.375000 0.000000 
6579.019492 -418.247295 -998.335297 718927.000000 7.000000 4.000000 -1250917.750000 0.000000 
5822.035117 -444.864971 -971.496399 25063.000000 1.000000 1.000000 -1251153.875000 10.000000 
5822.091758 -444.790020 -918.072906 25064.000000 1.000000 1.000000 -1251153.875000 10.000000 
7069.847617 -1391.535991 -175.416870 810135.000000 1.000000 1.000000 -1250901.375000 4.000000 
6266.794883 -271.559551 -142.937500 788018.000000 1.000000 1.000000 -1250904.125000 2.000000 
6112.934531 -1038.133281 -579.459473 738535.000000 1.000000 1.000000 -1250912.375000 14.000000 
6827.163047 -351.473613 2.828369 712998.000000 1.000000 1.000000 -1250918.875000 3.000000 
6002.089805 -340.316021 -595.390503 25069.000000 1.000000 1.000000 -1251153.875000 7.000000 
6103.628867 -894.681499 -672.594696 735243.000000 1.000000 1.000000 -1250913.250000 13.000000 
6753.133750 -271.546855 -630.605225 795712.000000 1.000000 1.000000 -1250903.500000 7.000000 
6052.256797 -271.585552 -427.935120 265999.000000 1.000000 1.000000 -1251054.375000 2.000000 
7264.856406 -345.922466 -136.526978 702079.000000 1.000000 1.000000 -1250920.375000 9.000000 
6853.683555 -1463.494899 -780.954498 748476.000000 1.000000 1.000000 -1250910.750000 43.000000 
6002.080039 -340.041240 -209.689880 25075.000000 1.000000 1.000000 -1251153.875000 5.000000 
5912.600547 -206.102153 -997.826996 265221.000000 7.000000 7.000000 -1251054.500000 0.000000 
5930.108359 -176.516704 -998.203094 265851.000000 7.000000 6.000000 -1251054.375000 0.000000 
6002.089805 -985.901470 -766.886810 581248.000000 1.000000 1.000000 -1250923.000000 0.000000 
7133.806602 -1471.416805 -320.676208 748424.000000 6.000000 4.000000 -1250910.750000 0.000000 
5877.370078 -1395.871013 -52.454468 300844.000000 7.000000 2.000000 -1251052.750000 0.000000 
7079.298789 -1391.557109 -5.250732 810277.000000 1.000000 1.000000 -1250901.250000 4.000000 
6291.458945 -271.595684 -753.193298 788359.000000 1.000000 1.000000 -1250904.125000 3.000000 
6101.984336 -838.966777 115.400635 733996.000000 1.000000 1.000000 -1250913.500000 6.000000 
6373.871055 -1499.221294 -15.235962 300004.000000 7.000000 7.000000 -1251053.750000 0.000000 
6058.916953 -172.071880 -997.886505 783945.000000 7.000000 7.000000 -1250904.625000 0.000000 
7217.114219 -201.332622 29.250244 804405.000000 1.000000 1.000000 -1250902.375000 3.000000 
5822.036094 -441.294414 -971.345901 25133.000000 1.000000 1.000000 -1251153.875000 10.000000 
6575.943320 -425.766094 -998.510803 719137.000000 7.000000 2.000000 -1250917.750000 0.000000 
5938.837852 -1103.259502 -107.354248 580272.000000 7.000000 7.000000 -1250923.125000 0.000000 
6497.404258 -536.794292 -998.425095 722777.000000 7.000000 3.000000 -1250916.875000 0.000000 
7101.432578 -351.456646 -231.394287 706696.000000 1.000000 1.000000 -1250919.875000 8.000000 
5849.024375 -1362.057994 -57.607544 301124.000000 7.000000 6.000000 -1251052.500000 0.000000 
6002.084922 -336.395244 -594.921326 25139.000000 1.000000 1.000000 -1251153.875000 7.000000 
6393.912070 -271.578960 -576.862793 789832.000000 1.000000 1.000000 -1250904.000000 4.000000 
6230.786094 -271.588604 -764.157013 267954.000000 1.000000 1.000000 -1251054.250000 1.000000 
6075.289023 -182.703838 -998.203400 784295.000000 7.000000 6.000000 -1250904.625000 0.000000 
6260.276328 -1087.431987 -998.159698 738877.000000 7.000000 6.000000 -1250912.375000 0.000000 
7225.293906 -271.545757 -64.140259 805313.000000 1.000000 1.000000 -1250902.125000 7.000000 
6954.110312 -351.468853 -171.594482 710266.000000 1.000000 1.000000 -1250919.375000 5.000000 
6877.055625 -1297.323192 -994.424500 741469.000000 1.000000 1.000000 -1250911.875000 48.000000 
6002.092734 -336.016948 -70.362061 25147.000000 1.000000 1.000000 -1251153.875000 5.000000 
6854.915000 -351.472148 -717.370300 712424.000000 1.000000 1.000000 -1250919.000000 9.000000 
6200.253867 -217.261455 -998.772507 25202.000000 7.000000 2.000000 -1251153.875000 0.000000 
6292.056602 -901.786296 -904.265305 733909.000000 1.000000 1.000000 -1250913.500000 17.000000 
6165.712852 -277.672344 -998.332901 786745.000000 7.000000 5.000000 -1250904.250000 0.000000 
6132.000937 -765.041912 -334.002930 732099.000000 1.000000 1.000000 -1250914.000000 9.000000 
6208.623008 -212.382427 -998.203705 25202.000000 7.000000 6.000000 -1251153.875000 0.000000 
6002.055625 -1332.452312 -644.096985 301330.000000 1.000000 1.000000 -1251052.375000 1.000000 
7298.734336 -351.458477 -44.498291 701171.000000 1.000000 1.000000 -1250920.500000 7.000000 
6220.986289 -1343.574291 -998.335693 745807.000000 7.000000 4.000000 -1250911.125000 0.000000 
6132.033164 -1227.992595 -151.361389 743093.000000 1.000000 1.000000 -1250911.625000 10.000000 
6616.108359 -271.555767 -670.469910 793331.000000 1.000000 1.000000 -1250903.750000 6.000000 
6676.871055 -351.483135 -107.167725 715865.000000 1.000000 1.000000 -1250918.375000 3.000000 
6002.054648 -332.623394 -776.260498 25206.000000 1.000000 1.000000 -1251153.875000 7.000000 
6002.054648 -332.576885 -716.254303 25207.000000 1.000000 1.000000 -1251153.750000 7.000000 
6107.605430 -1069.016521 -632.604919 739304.000000 1.000000 1.000000 -1250912.250000 15.000000 
6650.945273 -1256.488811 -998.408997 741468.000000 7.000000 3.000000 -1250911.875000 0.000000 
6002.080039 -332.421611 -532.483704 25210.000000 1.000000 1.000000 -1251153.750000 7.000000 
6002.068320 -332.381328 -469.686523 25211.000000 1.000000 1.000000 -1251153.750000 6.000000 
6002.055625 -332.342021 -405.958008 25212.000000 1.000000 1.000000 -1251153.750000 6.000000 
6874.400352 -351.458232 -137.165771 712016.000000 1.000000 1.000000 -1250919.125000 5.000000 
7169.817344 -1471.415599 -271.113403 748356.000000 5.000000 3.000000 -1250910.750000 0.000000 
5978.887656 -738.850872 -107.750488 259562.000000 5.000000 5.000000 -1251055.625000 0.000000 
6341.075156 -1471.680599 -324.682800 749182.000000 7.000000 3.000000 -1250910.625000 0.000000 
6818.630820 -155.039165 -997.978897 709407.000000 7.000000 7.000000 -1250919.500000 0.000000 
6197.389609 -214.611431 -998.839203 25272.000000 7.000000 1.000000 -1251153.750000 0.000000 
6102.022422 -881.844707 -724.014893 734962.000000 1.000000 1.000000 -1250913.250000 13.000000 
7195.272422 -310.975078 -245.561584 703406.000000 1.000000 1.000000 -1250920.250000 9.000000 
7143.601523 -1416.240703 -326.577576 745344.000000 1.000000 1.000000 -1250911.125000 46.000000 
6204.825156 -210.261577 -998.333496 25272.000000 7.000000 5.000000 -1251153.750000 0.000000 
6265.873984 -1064.514202 -998.159897 738247.000000 7.000000 6.000000 -1250912.500000 0.000000 
6208.604453 -208.051128 -998.076401 25272.000000 7.000000 7.000000 -1251153.750000 0.000000 
6877.024375 -291.238140 -925.810898 710739.000000 1.000000 1.000000 -1250919.250000 9.000000 
6082.588828 -176.321758 -998.772705 784295.000000 7.000000 2.000000 -1250904.625000 0.000000 
5822.090781 -434.103862 -971.037796 25273.000000 1.000000 1.000000 -1251153.750000 10.000000 
5925.181602 -182.166851 -998.203293 265711.000000 7.000000 6.000000 -1251054.375000 0.000000 
6215.113242 -1414.047206 -998.245193 747697.000000 7.000000 5.000000 -1250911.000000 0.000000 
6019.459922 -126.718242 -997.827805 782825.000000 7.000000 7.000000 -1250904.875000 0.000000 
6033.841758 -144.079814 -997.827606 783245.000000 7.000000 7.000000 -1250904.875000 0.000000 
6002.046836 -328.598125 -655.261688 25278.000000 1.000000 1.000000 -1251153.750000 7.000000 
7047.758750 -1399.713787 -476.849182 744988.000000 1.000000 1.000000 -1250911.250000 49.000000 
6382.710898 -551.483501 -895.467896 724669.000000 1.000000 1.000000 -1250916.250000 2.000000 
6002.067344 -328.445171 -469.105530 25281.000000 1.000000 1.000000 -1251153.750000 6.000000 
7063.626914 -218.531108 18.715942 588602.000000 7.000000 1.000000 -1250922.250000 0.000000 
6132.017539 -975.743022 -123.640747 736933.000000 1.000000 1.000000 -1250912.875000 9.000000 
6002.087852 -328.292339 -274.513306 25284.000000 1.000000 1.000000 -1251153.750000 5.000000 
6636.105430 -1361.941692 -998.408203 745178.000000 7.000000 3.000000 -1250911.250000 0.000000 
6116.502891 -651.427715 -543.427307 729785.000000 1.000000 1.000000 -1250914.625000 10.000000 
6106.376914 -575.641094 -644.741913 728313.000000 1.000000 1.000000 -1250915.000000 10.000000 
6665.537070 -1471.371303 -443.364197 748973.000000 7.000000 7.000000 -1250910.625000 0.000000 
6861.281211 -351.460552 -345.440125 712292.000000 1.000000 1.000000 -1250919.000000 6.000000 
6131.996055 -843.051372 -286.481384 733850.000000 1.000000 1.000000 -1250913.500000 9.000000 
6168.319297 -280.360820 -998.332794 786815.000000 7.000000 5.000000 -1250904.250000 0.000000 
7133.491172 -351.480449 -84.474976 705859.000000 1.000000 1.000000 -1250920.000000 6.000000 
6204.847617 -205.905986 -998.203003 25342.000000 7.000000 6.000000 -1251153.750000 0.000000 
7140.404258 -1451.441600 -331.501892 811463.000000 3.000000 2.000000 -1250901.125000 0.000000 
6209.489219 -203.181987 -997.887100 25342.000000 7.000000 7.000000 -1251153.750000 0.000000 
6611.992148 -271.592754 -550.308411 793263.000000 1.000000 1.000000 -1250903.750000 5.000000 
5822.086875 -430.517681 -970.885895 25343.000000 1.000000 1.000000 -1251153.750000 10.000000 
6688.697227 -351.474956 -282.985291 715652.000000 1.000000 1.000000 -1250918.375000 4.000000 
7278.341758 -190.339580 33.096558 277271.000000 6.000000 3.000000 -1251053.750000 0.000000 
6755.346641 -214.135845 -998.024506 711717.000000 7.000000 7.000000 -1250919.125000 0.000000 
6123.665977 -532.546978 -472.136719 727266.000000 1.000000 1.000000 -1250915.375000 9.000000 
6002.042930 -324.656841 -654.838806 25348.000000 1.000000 1.000000 -1251153.750000 7.000000 
6002.028281 -1446.783000 -492.005371 300421.000000 1.000000 1.000000 -1251053.250000 1.000000 
5981.711875 -1072.561626 -108.191650 256341.000000 5.000000 2.000000 -1251056.375000 0.000000 
6002.069297 -324.500469 -468.520996 25351.000000 1.000000 1.000000 -1251153.750000 6.000000 
6122.829062 -1107.188884 -480.440979 740147.000000 1.000000 1.000000 -1250912.125000 14.000000 
6573.358359 -1471.386592 -569.464783 749039.000000 7.000000 6.000000 -1250910.625000 0.000000 
6125.078086 -855.913005 -457.931519 734197.000000 1.000000 1.000000 -1250913.500000 12.000000 
6002.073203 -324.310161 -206.477295 25355.000000 1.000000 1.000000 -1251153.750000 5.000000 
6893.617148 -1391.573406 17.881104 807547.000000 1.000000 1.000000 -1250901.750000 3.000000 
6002.098594 -324.200908 -67.584717 25357.000000 1.000000 1.000000 -1251153.750000 4.000000 
6256.557578 -271.601909 -140.016724 787878.000000 1.000000 1.000000 -1250904.125000 2.000000 
6817.936484 -271.460063 -699.453796 273204.000000 2.000000 1.000000 -1251053.875000 0.000000 
6076.365195 -271.566875 -780.237915 266274.000000 1.000000 1.000000 -1251054.375000 2.000000 
6199.174766 -204.897441 -998.460205 25412.000000 7.000000 4.000000 -1251153.750000 0.000000 
7004.236289 -1497.879802 15.122559 749898.000000 1.000000 1.000000 -1250910.250000 16.000000 
6131.953086 -271.520732 -773.567993 586568.000000 6.000000 3.000000 -1250922.375000 0.000000 
6910.373008 -351.451519 -459.257690 711240.000000 1.000000 1.000000 -1250919.250000 8.000000 
6541.861289 -475.317241 -998.646805 720747.000000 7.000000 1.000000 -1250917.375000 0.000000 
6996.723594 -351.501689 -529.683472 709279.000000 1.000000 1.000000 -1250919.500000 10.000000 
5822.083945 -426.924785 -970.733200 25413.000000 1.000000 1.000000 -1251153.750000 9.000000 
6003.915977 -81.566143 -934.447296 781986.000000 1.000000 1.000000 -1250905.125000 2.000000 
6197.504844 -1471.684200 -570.898621 749246.000000 7.000000 3.000000 -1250910.625000 0.000000 
6373.476523 -270.396831 -425.030579 587060.000000 6.000000 1.000000 -1250922.250000 0.000000 
5998.240195 -1062.790203 -107.422363 256621.000000 5.000000 5.000000 -1251056.250000 0.000000 
6002.041953 -320.707012 -654.413300 25418.000000 1.000000 1.000000 -1251153.750000 7.000000 
6002.082969 -320.635723 -593.019714 25419.000000 1.000000 1.000000 -1251153.750000 7.000000 
6285.296836 -271.572002 -758.375214 268514.000000 1.000000 1.000000 -1251054.250000 1.000000 
6877.017539 -379.342388 -908.919800 799277.000000 1.000000 1.000000 -1250903.125000 2.000000 
6375.715781 -481.239849 -997.886703 792205.000000 7.000000 7.000000 -1250903.750000 0.000000 
6002.091758 -320.442729 -339.091309 25423.000000 1.000000 1.000000 -1251153.750000 6.000000 
6002.082969 -320.400737 -273.009827 25424.000000 1.000000 1.000000 -1251153.750000 5.000000 
6877.008750 -206.369121 -917.293503 709129.000000 1.000000 1.000000 -1250919.625000 7.000000 
6002.107383 -320.292339 -136.909424 25426.000000 1.000000 1.000000 -1251153.750000 5.000000 
6624.642539 -271.567119 -429.949280 793475.000000 1.000000 1.000000 -1250903.625000 5.000000 
6824.123984 -351.468364 -529.156982 713058.000000 1.000000 1.000000 -1250918.875000 7.000000 
6719.475547 -1391.574108 -640.629089 805089.000000 1.000000 1.000000 -1250902.250000 4.000000 
6132.010703 -840.014385 -226.156982 733781.000000 1.000000 1.000000 -1250913.500000 9.000000 
6132.039023 -1213.861614 -381.720581 742739.000000 1.000000 1.000000 -1250911.625000 12.000000 
7135.079062 -1471.519207 -137.204773 748428.000000 7.000000 4.000000 -1250910.750000 0.000000 
7237.342734 -229.741802 27.334839 276571.000000 6.000000 1.000000 -1251053.750000 0.000000 
6424.309531 -1391.581096 -361.359985 801172.000000 1.000000 1.000000 -1250902.875000 3.000000 
6205.680625 -196.707134 -997.886902 25482.000000 7.000000 7.000000 -1251153.625000 0.000000 
6490.625937 -271.565166 -592.125000 791302.000000 1.000000 1.000000 -1250903.875000 4.000000 
5843.127891 -274.797710 -998.076797 263401.000000 7.000000 7.000000 -1251054.875000 0.000000 
5822.079062 -423.283916 -916.886703 25484.000000 1.000000 1.000000 -1251153.625000 9.000000 
6132.018516 -1283.668987 -214.828430 744492.000000 1.000000 1.000000 -1250911.375000 11.000000 
6002.050742 -316.839458 -774.978302 25486.000000 1.000000 1.000000 -1251153.625000 7.000000 
6002.052695 -316.790996 -714.764709 25487.000000 1.000000 1.000000 -1251153.625000 7.000000 
7044.279258 -1471.284297 -188.134216 748565.000000 7.000000 7.000000 -1250910.750000 0.000000 
6557.035117 -454.046855 -998.646194 720047.000000 7.000000 1.000000 -1250917.500000 0.000000 
6241.612266 -351.489849 -170.727112 722371.000000 1.000000 1.000000 -1250917.000000 1.000000 
6002.066367 -316.594097 -467.346497 25491.000000 1.000000 1.000000 -1251153.625000 6.000000 
7097.762656 -1471.520000 -369.121521 748492.000000 7.000000 4.000000 -1250910.750000 0.000000 
6265.083945 -271.588115 -384.234314 268309.000000 1.000000 1.000000 -1251054.250000 1.000000 
7159.055625 -1451.261104 -302.408386 747235.000000 1.000000 1.000000 -1250911.000000 45.000000 
6835.271445 -1471.656703 -415.749390 748836.000000 7.000000 3.000000 -1250910.625000 0.000000 
6656.413047 -1230.939586 -998.473907 740558.000000 6.000000 2.000000 -1250912.000000 0.000000 
6789.458945 -81.672710 -960.034897 275371.000000 2.000000 2.000000 -1251053.875000 0.000000 
6125.793906 -222.817607 -998.839203 785485.000000 7.000000 1.000000 -1250904.375000 0.000000 
6963.227500 -351.453716 -63.276855 710058.000000 1.000000 1.000000 -1250919.375000 5.000000 
6433.794883 -81.587749 -904.922806 787727.000000 1.000000 1.000000 -1250904.250000 5.000000 
6462.581016 -351.453228 -195.666992 719362.000000 1.000000 1.000000 -1250917.625000 2.000000 
7231.420859 -277.577617 -188.932922 701797.000000 1.000000 1.000000 -1250920.375000 8.000000 
6199.130820 -196.223491 -998.203293 25552.000000 7.000000 6.000000 -1251153.625000 0.000000 
6870.568320 -1442.489101 -754.480804 747567.000000 1.000000 1.000000 -1250911.000000 44.000000 
6203.766562 -193.475200 -997.886902 25552.000000 7.000000 7.000000 -1251153.625000 0.000000 
7301.996055 -310.186748 -73.659058 700330.000000 1.000000 1.000000 -1250920.500000 1.000000 
6552.664023 -457.338481 -998.510605 720187.000000 7.000000 2.000000 -1250917.500000 0.000000 
6116.704062 -634.855937 -541.471802 729435.000000 1.000000 1.000000 -1250914.625000 10.000000 
6263.929648 -351.486431 -179.406372 722091.000000 1.000000 1.000000 -1250917.000000 1.000000 
6871.058555 -1402.600292 -753.700714 745887.000000 1.000000 1.000000 -1250911.125000 44.000000 
6132.024375 -1253.081310 -212.962830 743722.000000 1.000000 1.000000 -1250911.500000 11.000000 
6228.018516 -1286.414012 -998.425598 744267.000000 7.000000 3.000000 -1250911.375000 0.000000 
6838.950156 -208.175884 9.803711 796493.000000 1.000000 1.000000 -1250903.375000 2.000000 
6517.927695 -496.976421 -998.024796 721587.000000 7.000000 7.000000 -1250917.125000 0.000000 
6083.644492 -200.343486 -997.886993 784645.000000 7.000000 7.000000 -1250904.500000 0.000000 
6877.123008 -1381.465709 -848.287415 744974.000000 2.000000 1.000000 -1250911.250000 15.000000 
6596.646445 -395.471538 -998.335098 718157.000000 7.000000 4.000000 -1250917.875000 0.000000 
6002.011680 -996.946514 -642.529907 303990.000000 1.000000 1.000000 -1251050.250000 1.000000 
6627.275352 -1488.307994 -998.199203 749588.000000 7.000000 6.000000 -1250910.375000 0.000000 
6002.107383 -312.369365 -135.154175 25566.000000 1.000000 1.000000 -1251153.625000 5.000000 
6212.612266 -1411.300106 -998.024200 747627.000000 7.000000 7.000000 -1250911.000000 0.000000 
6046.861289 -818.993389 -108.648560 582512.000000 7.000000 3.000000 -1250922.750000 0.000000 
5972.645469 -1014.349773 -108.001953 580972.000000 7.000000 5.000000 -1250923.000000 0.000000 
6936.457969 -1405.174999 -651.302307 745751.000000 1.000000 1.000000 -1250911.125000 48.000000 
6102.038047 -538.732891 -751.684692 727611.000000 1.000000 1.000000 -1250915.250000 10.000000 
6817.828086 -271.460430 -784.369202 273203.000000 2.000000 1.000000 -1251053.875000 0.000000 
7209.271445 -1469.319301 -223.742004 748148.000000 1.000000 1.000000 -1250910.875000 42.000000 
6108.890586 -887.219402 -620.100403 735034.000000 1.000000 1.000000 -1250913.250000 13.000000 
5868.950156 -247.587383 -998.076797 264101.000000 7.000000 7.000000 -1251054.750000 0.000000 
6202.724570 -189.724956 -997.827103 25622.000000 7.000000 7.000000 -1251153.625000 0.000000 
5822.114219 -649.628521 -982.855392 258571.000000 1.000000 1.000000 -1251055.875000 2.000000 
5822.086875 -416.058452 -916.483093 25624.000000 1.000000 1.000000 -1251153.625000 9.000000 
6002.137656 -745.649883 -587.434998 259766.000000 1.000000 1.000000 -1251055.500000 1.000000 
6741.398398 -271.548076 -686.388702 795501.000000 1.000000 1.000000 -1250903.500000 7.000000 
6224.772422 -271.566753 -77.062256 267893.000000 1.000000 1.000000 -1251054.250000 1.000000 
6002.090781 -308.786724 -653.113708 25628.000000 1.000000 1.000000 -1251153.625000 7.000000 
6045.204062 -1022.374980 -108.192505 257531.000000 6.000000 2.000000 -1251056.125000 0.000000 
6849.320273 -1391.530101 -486.808105 806911.000000 1.000000 1.000000 -1250901.875000 4.000000 
6475.323203 -81.635356 -901.632904 272852.000000 1.000000 1.000000 -1251054.000000 1.000000 
6002.108359 -308.587017 -402.081421 25632.000000 1.000000 1.000000 -1251153.625000 6.000000 
6651.400352 -1262.690990 -998.576996 741678.000000 7.000000 1.000000 -1250911.875000 0.000000 
6002.074180 -308.512432 -270.730896 25634.000000 1.000000 1.000000 -1251153.625000 5.000000 
6002.126914 -842.666179 -607.257324 582229.000000 1.000000 1.000000 -1250922.875000 0.000000 
6731.079062 -241.796978 -998.244598 712697.000000 7.000000 5.000000 -1250919.000000 0.000000 
7059.542930 -228.504009 18.458740 588532.000000 7.000000 5.000000 -1250922.250000 0.000000 
5988.815391 -89.128887 -998.839493 267811.000000 7.000000 1.000000 -1251054.250000 0.000000 
6102.034141 -822.820903 -719.965912 733632.000000 1.000000 1.000000 -1250913.625000 12.000000 
6663.366172 -1391.547802 -554.444702 804320.000000 1.000000 1.000000 -1250902.375000 4.000000 
6191.547812 -192.019268 -998.459702 25692.000000 7.000000 4.000000 -1251153.625000 0.000000 
6193.399375 -190.914409 -998.333206 25692.000000 7.000000 5.000000 -1251153.625000 0.000000 
6132.013633 -655.237102 -376.076294 729718.000000 1.000000 1.000000 -1250914.625000 9.000000 
6197.155234 -188.672954 -998.076401 25692.000000 7.000000 7.000000 -1251153.625000 0.000000 
6775.217734 -1391.578899 -142.486084 805865.000000 1.000000 1.000000 -1250902.000000 3.000000 
6132.175742 -242.383525 -998.333603 785835.000000 7.000000 5.000000 -1250904.375000 0.000000 
6741.642539 -181.592021 29.363647 794323.000000 1.000000 1.000000 -1250903.625000 4.000000 
6002.091758 -338.633159 -201.701416 264532.000000 1.000000 1.000000 -1251054.625000 2.000000 
5822.079062 -412.400249 -862.149902 25695.000000 1.000000 1.000000 -1251153.500000 9.000000 
6338.397422 -551.470073 -939.100006 725228.000000 1.000000 1.000000 -1250916.125000 2.000000 
6486.135703 -271.567852 -591.427917 791232.000000 1.000000 1.000000 -1250903.875000 4.000000 
6002.090781 -304.808696 -652.680786 25698.000000 1.000000 1.000000 -1251153.500000 7.000000 
6754.664023 -270.163188 -561.941101 587759.000000 7.000000 1.000000 -1250922.250000 0.000000 
6003.831016 -96.318950 -997.887207 267881.000000 7.000000 7.000000 -1251054.250000 0.000000 
6633.887656 -1385.956707 -998.408096 746018.000000 7.000000 3.000000 -1250911.125000 0.000000 
6721.161094 -250.420269 -998.158997 713047.000000 7.000000 6.000000 -1250918.875000 0.000000 
6357.388633 -450.525737 -998.585999 791575.000000 7.000000 3.000000 -1250903.875000 0.000000 
6339.522422 -1471.683101 -271.219971 749183.000000 7.000000 3.000000 -1250910.625000 0.000000 
6627.473594 -1474.221294 -998.199905 749098.000000 7.000000 6.000000 -1250910.625000 0.000000 
6002.099570 -304.424175 -133.388611 25706.000000 1.000000 1.000000 -1251153.500000 5.000000 
6214.185508 -1484.758403 -998.335602 749587.000000 7.000000 4.000000 -1250910.375000 0.000000 
6184.084922 -192.127300 -998.839096 25762.000000 7.000000 1.000000 -1251153.500000 0.000000 
6877.089805 -1472.340999 -996.829895 748819.000000 1.000000 1.000000 -1250910.750000 52.000000 
7294.562461 -236.760845 30.347290 806575.000000 1.000000 1.000000 -1250901.875000 3.000000 
7176.896445 -1414.650096 -274.448120 745066.000000 1.000000 1.000000 -1250911.250000 43.000000 
6074.572227 -768.531414 -107.355347 582932.000000 7.000000 7.000000 -1250922.750000 0.000000 
6193.370078 -186.567241 -998.203705 25762.000000 7.000000 6.000000 -1251153.500000 0.000000 
6286.439414 -271.595439 -752.633514 788289.000000 1.000000 1.000000 -1250904.125000 3.000000 
6972.411094 -351.471416 -124.381226 709847.000000 1.000000 1.000000 -1250919.500000 5.000000 
7142.334922 -1464.143199 -328.554688 748004.000000 1.000000 1.000000 -1250911.000000 46.000000 
6228.560508 -1273.293407 -998.334900 743917.000000 7.000000 4.000000 -1250911.500000 0.000000 
6113.213828 -209.034282 -998.839005 785135.000000 7.000000 1.000000 -1250904.500000 0.000000 
6359.552695 -351.474346 -90.691528 720833.000000 1.000000 1.000000 -1250917.375000 1.000000 
6757.139609 -271.563823 -455.163818 795785.000000 1.000000 1.000000 -1250903.375000 6.000000 
6344.587852 -351.471660 -558.361511 721035.000000 1.000000 1.000000 -1250917.250000 2.000000 
6002.090781 -300.823955 -652.246094 25768.000000 1.000000 1.000000 -1251153.500000 7.000000 
6844.386680 -1391.580089 -486.409790 806841.000000 1.000000 1.000000 -1250901.875000 4.000000 
7222.220664 -271.578105 1.410400 805244.000000 1.000000 1.000000 -1250902.125000 6.000000 
6002.059531 -300.700176 -464.968506 25771.000000 1.000000 1.000000 -1251153.500000 6.000000 
6002.096641 -300.630718 -400.778198 25772.000000 1.000000 1.000000 -1251153.500000 6.000000 
6104.124961 -823.604106 -667.269196 733633.000000 1.000000 1.000000 -1250913.625000 13.000000 
7146.748008 -351.472515 -298.084717 705505.000000 1.000000 1.000000 -1250920.000000 9.000000 
7078.439414 -1438.370006 -428.764587 746810.000000 1.000000 1.000000 -1250911.125000 49.000000 
6877.000937 -139.290508 -910.388107 707939.000000 1.000000 1.000000 -1250919.750000 6.000000 
6002.087852 -300.398174 -61.936401 25777.000000 1.000000 1.000000 -1251153.500000 4.000000 
6182.159141 -188.930156 -998.839493 25832.000000 7.000000 1.000000 -1251153.500000 0.000000 
6183.142539 -188.339214 -998.772095 25832.000000 7.000000 2.000000 -1251153.500000 0.000000 
6877.025352 -140.861187 -880.172607 796338.000000 1.000000 1.000000 -1250903.375000 3.000000 
6877.040977 -356.909404 -849.576294 712071.000000 1.000000 1.000000 -1250919.000000 10.000000 
6215.499961 -1429.793300 -998.335495 748117.000000 7.000000 4.000000 -1250910.875000 0.000000 
6191.447227 -183.349712 -998.203293 25832.000000 7.000000 6.000000 -1251153.500000 0.000000 
6292.019492 -554.653545 -934.850006 725858.000000 1.000000 1.000000 -1250915.875000 12.000000 
7134.684531 -181.555645 40.769653 802305.000000 1.000000 1.000000 -1250902.625000 6.000000 
6196.938437 -180.050640 -997.827194 25832.000000 7.000000 7.000000 -1251153.500000 0.000000 
5822.077109 -405.229106 -969.802307 25833.000000 1.000000 1.000000 -1251153.500000 9.000000 
6881.100547 -351.457744 -301.460083 711873.000000 1.000000 1.000000 -1250919.125000 6.000000 
5822.101523 -463.313945 -942.328094 584467.000000 1.000000 1.000000 -1250922.500000 1.000000 
6002.050742 -296.951519 -773.343903 25836.000000 1.000000 1.000000 -1251153.375000 7.000000 
6644.666953 -1298.217906 -998.472900 742938.000000 7.000000 2.000000 -1250911.625000 0.000000 
6279.763633 -212.627544 -18.443848 787390.000000 1.000000 1.000000 -1250904.250000 1.000000 
6877.072227 -1216.335186 -932.385193 738181.000000 1.000000 1.000000 -1250912.500000 44.000000 
6002.070273 -296.749248 -527.656799 25840.000000 1.000000 1.000000 -1251153.375000 6.000000 
6580.021445 -1471.520198 -572.167908 749039.000000 7.000000 5.000000 -1250910.625000 0.000000 
6601.519492 -389.311382 -998.335297 717947.000000 7.000000 4.000000 -1250918.000000 0.000000 
6010.147422 -271.560161 -436.371521 265509.000000 1.000000 1.000000 -1251054.500000 2.000000 
6477.965781 -551.364360 -998.333405 794515.000000 6.000000 5.000000 -1250903.625000 0.000000 
6002.078086 -296.507183 -200.714722 25845.000000 1.000000 1.000000 -1251153.375000 5.000000 
6002.086875 -514.213848 -618.866577 262356.000000 1.000000 1.000000 -1251055.000000 2.000000 
6121.999961 -1251.589489 -488.614807 743717.000000 1.000000 1.000000 -1250911.500000 15.000000 
5874.107383 -1219.943798 -109.132446 579292.000000 7.000000 2.000000 -1250923.375000 0.000000 
6601.887656 -382.902568 -998.024200 717807.000000 7.000000 7.000000 -1250918.000000 0.000000 
6877.088828 -1444.314296 -996.689606 747629.000000 1.000000 1.000000 -1250911.000000 52.000000 
6940.719687 -1447.104793 -645.562805 808519.000000 2.000000 1.000000 -1250901.625000 0.000000 
6187.625937 -181.276836 -998.332794 25902.000000 7.000000 5.000000 -1251153.375000 0.000000 
6189.522422 -180.133281 -998.202805 25902.000000 7.000000 6.000000 -1251153.375000 0.000000 
6191.368125 -179.021343 -998.076294 25902.000000 7.000000 7.000000 -1251153.375000 0.000000 
6002.088828 -393.546001 -265.663696 263831.000000 1.000000 1.000000 -1251054.750000 2.000000 
6172.692344 -1471.326305 -511.885925 749247.000000 7.000000 6.000000 -1250910.625000 0.000000 
6932.466758 -351.479351 -320.170776 710753.000000 1.000000 1.000000 -1250919.250000 7.000000 
6993.912070 -271.539775 -551.781616 800334.000000 1.000000 1.000000 -1250903.000000 9.000000 
6513.258750 -271.578350 -141.720398 791659.000000 1.000000 1.000000 -1250903.875000 3.000000 
5987.374961 -92.757061 -998.772507 267741.000000 7.000000 2.000000 -1251054.250000 0.000000 
7028.178672 -271.543560 -268.881592 801039.000000 1.000000 1.000000 -1250902.875000 7.000000 
6002.081992 -292.838604 -651.373291 25908.000000 1.000000 1.000000 -1251153.375000 7.000000 
6363.404258 -271.593730 -442.454712 269288.000000 1.000000 1.000000 -1251054.125000 1.000000 
6350.839805 -271.604717 -505.187378 789203.000000 1.000000 1.000000 -1250904.000000 3.000000 
6951.609336 -271.683452 -233.606079 274189.000000 2.000000 2.000000 -1251053.875000 0.000000 
6002.097617 -292.638530 -399.459106 25912.000000 1.000000 1.000000 -1251153.375000 6.000000 
6640.744102 -1322.015911 -998.408707 743778.000000 6.000000 3.000000 -1250911.500000 0.000000 
6760.023398 -1391.549114 -396.447083 805652.000000 1.000000 1.000000 -1250902.125000 4.000000 
6002.062461 -292.516948 -199.885010 25915.000000 1.000000 1.000000 -1251153.375000 5.000000 
