ply
format ascii 1.0
comment Created by CloudCompare v2.12 alpha
comment Created 6/8/2021 9:15 PM
obj_info Generated by CloudCompare!
element vertex 494
property double x
property double y
property double z
property float scalar_fullwaveIndex
property float scalar_NumberOfReturns
property float scalar_ReturnNumber
property float scalar_GpsTime
property float scalar_Intensity
end_header
-2929.627969 -631.466533 -207.187073 6587474.000000 1.000000 1.000000 -1047395.375000 3.000000 
3379.303672 -1265.270488 -999.867004 139173.000000 1.000000 1.000000 -1047930.625000 0.000000 
3110.248008 -1134.826274 -1000.253998 139218.000000 1.000000 1.000000 -1047930.625000 0.000000 
-3197.305215 -845.247173 -1078.437302 9252173.000000 5.000000 5.000000 -1047025.687500 0.000000 
3152.008750 -624.234111 -831.235992 8021852.000000 5.000000 4.000000 -1047182.562500 0.000000 
-3198.733438 -1227.396587 -1072.587402 9253853.000000 5.000000 1.000000 -1047025.312500 0.000000 
-5897.950356 -784.633770 200.758667 8691881.000000 4.000000 3.000000 -1047089.812500 0.000000 
3044.932578 -703.845806 -780.609711 5933401.000000 1.000000 1.000000 -1047503.562500 0.000000 
3385.854453 -1249.816814 -999.960007 139311.000000 2.000000 1.000000 -1047930.562500 0.000000 
-2842.917520 -1091.018108 -544.206482 6585028.000000 5.000000 1.000000 -1047395.750000 0.000000 
-2598.285195 -448.954692 -1003.843094 6879242.000000 7.000000 5.000000 -1047349.687500 0.000000 
-2653.078164 -321.527324 -1010.113098 7470112.000000 1.000000 1.000000 -1047259.250000 5.000000 
3051.169883 -719.757915 -280.652100 6529658.000000 1.000000 1.000000 -1047409.062500 0.000000 
3125.105430 -1121.805522 -991.458496 139356.000000 7.000000 4.000000 -1047930.562500 0.000000 
3124.808555 -1121.666423 -991.799606 139356.000000 7.000000 5.000000 -1047930.562500 0.000000 
3042.185508 -722.490520 -996.234894 9518103.000000 2.000000 2.000000 -1046997.250000 0.000000 
-2953.130898 -939.517925 -583.043274 9843949.000000 2.000000 1.000000 -1046961.062500 0.000000 
-2849.946816 -627.307476 -536.081604 7472907.000000 1.000000 1.000000 -1047258.812500 4.000000 
3122.656211 -1120.660198 -994.266495 139356.000000 7.000000 7.000000 -1047930.562500 0.000000 
3122.048789 -1120.376018 -994.963303 139356.000000 7.000000 7.000000 -1047930.562500 0.000000 
3387.898398 -1244.599803 -1000.181702 139357.000000 1.000000 1.000000 -1047930.562500 0.000000 
-2949.167520 -1031.886272 -353.502502 8065736.000000 6.000000 5.000000 -1047174.187500 0.000000 
3044.264609 -781.453594 -831.909302 8023042.000000 1.000000 1.000000 -1047182.437500 0.000000 
3138.946250 -1121.653972 -978.342407 139402.000000 7.000000 3.000000 -1047930.562500 0.000000 
-2950.089395 -752.371196 -380.832275 10735118.000000 1.000000 1.000000 -1046881.250000 0.000000 
3043.669883 -760.136699 -882.850403 6828282.000000 1.000000 1.000000 -1047360.812500 0.000000 
2802.167930 -492.532817 -1006.982697 9218293.000000 1.000000 1.000000 -1047031.250000 0.000000 
3137.478477 -1120.965496 -980.025299 139402.000000 7.000000 7.000000 -1047930.562500 0.000000 
3051.208945 -722.668987 -272.580505 9817350.000000 1.000000 1.000000 -1046965.250000 0.000000 
-2911.095254 -622.834453 -897.008606 8360021.000000 1.000000 1.000000 -1047133.875000 3.000000 
-3032.570107 -321.560161 -1001.187103 6590002.000000 1.000000 1.000000 -1047394.937500 4.000000 
-2950.764688 -733.293071 -418.623230 10437338.000000 2.000000 1.000000 -1046905.750000 0.000000 
-2954.466836 -873.173809 -744.926788 9249930.000000 5.000000 4.000000 -1047026.062500 0.000000 
-2797.981484 -321.525249 -1093.733398 7177233.000000 1.000000 1.000000 -1047302.375000 5.000000 
-2955.875039 -711.656230 -884.969696 8656681.000000 5.000000 5.000000 -1047097.250000 0.000000 
-2955.312051 -917.461895 -782.082306 10736171.000000 2.000000 1.000000 -1046881.062500 0.000000 
-2840.105996 -1011.026714 -855.827393 5992761.000000 5.000000 4.000000 -1047489.625000 0.000000 
-2948.885781 -851.677471 -218.445679 8953335.000000 5.000000 1.000000 -1047061.562500 0.000000 
-2949.624551 -989.876689 -361.616821 8065666.000000 6.000000 4.000000 -1047174.187500 0.000000 
-5898.241494 -841.049175 199.377930 8098702.000000 3.000000 3.000000 -1047166.062500 0.000000 
3251.220664 -322.112407 -1028.566498 7720923.000000 5.000000 4.000000 -1047226.687500 0.000000 
3392.512656 -1234.410900 -1000.002594 139449.000000 1.000000 1.000000 -1047930.562500 0.000000 
3161.951133 -1119.262371 -957.453705 139494.000000 3.000000 1.000000 -1047930.500000 0.000000 
-3197.676797 -330.663555 -1002.727997 8658012.000000 5.000000 4.000000 -1047097.000000 0.000000 
3045.674766 -1091.840923 -727.195496 6531901.000000 2.000000 2.000000 -1047408.812500 0.000000 
2801.956992 -1361.560894 -1035.142799 7131173.000000 2.000000 1.000000 -1047313.187500 0.000000 
-2845.496621 -921.180278 -365.927917 5399927.000000 3.000000 1.000000 -1047584.250000 0.000000 
3161.616172 -1112.495708 -960.608505 139540.000000 3.000000 2.000000 -1047930.500000 0.000000 
-2951.622598 -745.633770 -511.660889 9545888.000000 3.000000 3.000000 -1046992.750000 0.000000 
3397.155234 -1224.235607 -999.824295 139541.000000 2.000000 1.000000 -1047930.500000 0.000000 
-2918.153359 -321.504863 -1093.528000 7178913.000000 1.000000 1.000000 -1047302.187500 5.000000 
-2952.780313 -1058.349102 -646.243591 8657939.000000 5.000000 5.000000 -1047097.062500 0.000000 
3125.950156 -624.839702 -761.756805 6230481.000000 3.000000 3.000000 -1047455.875000 0.000000 
2802.191367 -881.095012 -1035.264999 7426993.000000 1.000000 1.000000 -1047268.250000 0.000000 
3399.385703 -1219.104290 -999.862503 139587.000000 1.000000 1.000000 -1047930.500000 0.000000 
3042.226523 -855.837871 -995.300507 9518733.000000 2.000000 2.000000 -1046997.125000 0.000000 
-2951.347207 -892.643718 -465.503784 9843668.000000 2.000000 1.000000 -1046961.125000 0.000000 
3161.305625 -1099.103679 -966.545197 139632.000000 3.000000 3.000000 -1047930.500000 0.000000 
-2847.078164 -988.108318 -268.935303 5696376.000000 3.000000 2.000000 -1047537.625000 0.000000 
-2954.107949 -845.999492 -636.471619 9249789.000000 4.000000 1.000000 -1047026.125000 0.000000 
-2928.148477 -321.493877 -1009.300797 7179052.000000 1.000000 1.000000 -1047302.187500 5.000000 
3043.239219 -931.924419 -923.167999 5637022.000000 2.000000 2.000000 -1047551.000000 0.000000 
2801.954062 -1243.092998 -1016.859802 8325093.000000 2.000000 1.000000 -1047140.187500 0.000000 
-2844.163125 -780.800090 -502.349182 5400698.000000 3.000000 2.000000 -1047584.125000 0.000000 
3213.823203 -321.457500 -1059.518097 5929903.000000 2.000000 1.000000 -1047504.062500 0.000000 
3049.131797 -843.757976 -442.676208 10715941.000000 1.000000 1.000000 -1046884.125000 0.000000 
3161.760703 -1086.041912 -971.653900 139724.000000 3.000000 2.000000 -1047930.437500 0.000000 
3161.382773 -1085.859905 -972.089005 139724.000000 3.000000 3.000000 -1047930.437500 0.000000 
-2956.574746 -759.801372 -888.907898 8361001.000000 5.000000 3.000000 -1047133.750000 0.000000 
-2693.076211 -321.528057 -1008.567001 6880782.000000 1.000000 1.000000 -1047349.437500 5.000000 
-2802.252969 -321.637065 -1071.631401 10136063.000000 1.000000 1.000000 -1046932.687500 0.000000 
2802.133750 -434.427227 -1028.986900 8021853.000000 1.000000 1.000000 -1047182.562500 0.000000 
3161.793906 -1079.404888 -974.450806 139770.000000 3.000000 2.000000 -1047930.437500 0.000000 
3051.815391 -928.686687 -235.247681 5636947.000000 2.000000 2.000000 -1047551.000000 0.000000 
-2862.284219 -628.531108 -438.338196 7177716.000000 1.000000 1.000000 -1047302.312500 4.000000 
-2950.968789 -813.508220 -466.223694 8657027.000000 5.000000 4.000000 -1047097.187500 0.000000 
3401.699180 -1195.379192 -1008.328903 139771.000000 3.000000 3.000000 -1047930.437500 0.000000 
-2598.252969 -513.631328 -1085.516701 5992483.000000 5.000000 4.000000 -1047489.625000 0.000000 
-2597.601602 -630.479229 -1083.713097 5991923.000000 4.000000 2.000000 -1047489.750000 0.000000 
-2932.193398 -624.316143 -779.342804 8952080.000000 1.000000 1.000000 -1047061.687500 2.000000 
-2953.694863 -774.918193 -675.820587 10437620.000000 2.000000 2.000000 -1046905.687500 0.000000 
-3198.023477 -406.855693 -1071.006897 10436923.000000 2.000000 1.000000 -1046905.812500 0.000000 
-3197.991250 -1308.926708 -1062.815201 10145023.000000 4.000000 3.000000 -1046931.187500 0.000000 
-2598.284707 -976.497600 -1075.980598 5694073.000000 5.000000 4.000000 -1047538.187500 0.000000 
2802.290000 -1031.355022 -1060.505997 5639193.000000 2.000000 2.000000 -1047550.625000 0.000000 
-2898.315957 -770.585186 206.079346 7177990.000000 7.000000 5.000000 -1047302.312500 0.000000 
3402.490195 -1177.056011 -1015.984100 139909.000000 3.000000 1.000000 -1047930.375000 0.000000 
3402.102500 -1176.866191 -1016.468002 139909.000000 3.000000 2.000000 -1047930.375000 0.000000 
3401.704062 -1176.671215 -1016.964905 139909.000000 3.000000 3.000000 -1047930.375000 0.000000 
3402.493125 -1170.804912 -1018.887100 139955.000000 3.000000 1.000000 -1047930.375000 0.000000 
3257.740195 -321.916484 -1049.199402 6526163.000000 4.000000 4.000000 -1047409.687500 0.000000 
3401.669883 -1170.400707 -1019.914093 139955.000000 3.000000 3.000000 -1047930.375000 0.000000 
-2840.397988 -674.709880 -804.154999 6881900.000000 5.000000 3.000000 -1047349.312500 0.000000 
-3198.319619 -976.712383 -1081.830902 8364363.000000 6.000000 2.000000 -1047133.125000 0.000000 
3052.105430 -1037.479778 -203.836304 8323269.000000 1.000000 1.000000 -1047140.500000 0.000000 
2801.946250 -1133.009319 -1042.220901 6831573.000000 2.000000 1.000000 -1047360.312500 0.000000 
-2895.689004 -626.264751 -620.600586 8064268.000000 1.000000 1.000000 -1047174.437500 4.000000 
3401.665977 -1157.863811 -1025.775803 140047.000000 3.000000 3.000000 -1047930.375000 0.000000 
-3198.020303 -1321.434490 -1055.487801 10740023.000000 3.000000 2.000000 -1046880.437500 0.000000 
2911.348594 -320.538066 -1043.971199 7124593.000000 5.000000 1.000000 -1047314.375000 0.000000 
3044.312461 -963.875225 -827.982788 8024022.000000 1.000000 1.000000 -1047182.375000 0.000000 
3402.462852 -1145.691326 -1030.687599 140139.000000 3.000000 1.000000 -1047930.375000 0.000000 
-2877.295938 -631.399761 -216.497070 5698545.000000 1.000000 1.000000 -1047537.312500 1.000000 
3043.147422 -750.137004 -928.693695 5635902.000000 2.000000 2.000000 -1047551.125000 0.000000 
3043.670859 -736.934429 -883.429413 6828142.000000 1.000000 1.000000 -1047360.812500 0.000000 
-2956.509316 -883.413494 -855.138611 9250001.000000 4.000000 2.000000 -1047026.062500 0.000000 
3401.678672 -1139.002117 -1034.644798 140185.000000 3.000000 3.000000 -1047930.312500 0.000000 
-2953.844766 -631.664775 -693.855408 8656329.000000 5.000000 4.000000 -1047097.312500 0.000000 
-3197.763711 -326.433940 -1076.018700 10139143.000000 2.000000 2.000000 -1046932.187500 0.000000 
-2955.665566 -890.338970 -789.237610 7769850.000000 7.000000 4.000000 -1047216.375000 0.000000 
-2952.729043 -1099.494487 -641.627808 8658079.000000 5.000000 5.000000 -1047097.000000 0.000000 
3402.074180 -1126.577678 -1040.140999 140277.000000 3.000000 2.000000 -1047930.312500 0.000000 
3401.682578 -1126.380291 -1040.632401 140277.000000 3.000000 3.000000 -1047930.312500 0.000000 
-2954.416543 -666.513530 -716.446503 7769639.000000 7.000000 4.000000 -1047216.437500 0.000000 
2802.216758 -946.184490 -1024.617599 8024723.000000 1.000000 1.000000 -1047182.250000 0.000000 
3401.686484 -1120.056926 -1043.644501 140323.000000 3.000000 3.000000 -1047930.312500 0.000000 
-2947.381387 -748.132610 -207.686523 8065174.000000 6.000000 5.000000 -1047174.250000 0.000000 
3402.080039 -1113.921978 -1046.181000 140369.000000 3.000000 2.000000 -1047930.312500 0.000000 
-2950.568887 -686.710002 -405.422485 9545537.000000 1.000000 1.000000 -1046992.750000 0.000000 
3402.467734 -1107.776775 -1048.737297 140415.000000 3.000000 1.000000 -1047930.312500 0.000000 
-2955.012246 -684.600994 -760.333405 9248950.000000 3.000000 2.000000 -1047026.187500 0.000000 
-2847.071328 -665.668926 -287.411621 5401396.000000 2.000000 2.000000 -1047584.062500 0.000000 
-2950.298867 -1028.496929 -448.316223 8361697.000000 5.000000 5.000000 -1047133.687500 0.000000 
-2950.977578 -859.295818 -438.432800 10140678.000000 2.000000 1.000000 -1046932.000000 0.000000 
-2845.204629 -943.429119 -419.469788 5993107.000000 5.000000 3.000000 -1047489.562500 0.000000 
3140.946250 -620.122783 -984.282898 10116043.000000 6.000000 1.000000 -1046935.562500 0.000000 
3402.047812 -1094.849102 -1055.395699 140507.000000 3.000000 2.000000 -1047930.250000 0.000000 
3401.690391 -1094.665813 -1055.845596 140507.000000 3.000000 3.000000 -1047930.250000 0.000000 
-2948.543984 -698.403179 -302.694580 8360715.000000 5.000000 5.000000 -1047133.812500 0.000000 
-2948.206094 -788.741680 -234.967224 9843036.000000 2.000000 2.000000 -1046961.187500 0.000000 
-2597.287637 -844.892925 -1084.740898 6878613.000000 7.000000 2.000000 -1047349.812500 0.000000 
-2925.688516 -631.324932 -215.831909 8360224.000000 1.000000 1.000000 -1047133.875000 3.000000 
-2845.015664 -1070.960491 -491.950806 5695958.000000 5.000000 5.000000 -1047537.687500 0.000000 
3401.655234 -1081.895427 -1062.076897 140599.000000 3.000000 3.000000 -1047930.250000 0.000000 
-2841.142617 -864.747783 -742.786987 5696940.000000 4.000000 3.000000 -1047537.562500 0.000000 
-2702.825723 -321.488750 -1093.878601 7470813.000000 1.000000 1.000000 -1047259.125000 5.000000 
3401.657187 -1075.506328 -1065.188797 140645.000000 3.000000 3.000000 -1047930.250000 0.000000 
3050.231406 -884.070720 -356.197876 7127459.000000 1.000000 1.000000 -1047314.000000 0.000000 
-2842.132363 -725.824077 -664.489502 5994089.000000 5.000000 3.000000 -1047489.437500 0.000000 
2802.206992 -941.585430 -1029.715797 7725963.000000 1.000000 1.000000 -1047226.125000 0.000000 
-2954.503945 -745.587871 -719.942200 9842830.000000 2.000000 1.000000 -1046961.187500 0.000000 
3402.051719 -1062.903179 -1070.962997 140737.000000 3.000000 2.000000 -1047930.187500 0.000000 
2801.997031 -854.740520 -1062.745903 5638143.000000 2.000000 1.000000 -1047550.875000 0.000000 
3402.481406 -1056.710308 -1073.576698 140783.000000 3.000000 1.000000 -1047930.187500 0.000000 
-2929.820840 -321.514507 -1009.856796 7768942.000000 1.000000 1.000000 -1047216.562500 5.000000 
3401.659141 -1056.279521 -1074.615997 140783.000000 3.000000 3.000000 -1047930.187500 0.000000 
-2951.105020 -761.460979 -504.687012 8065247.000000 6.000000 5.000000 -1047174.250000 0.000000 
-2847.939004 -909.560710 -230.261597 6289555.000000 5.000000 4.000000 -1047443.062500 0.000000 
-3197.973916 -1345.548809 -1068.278603 9551073.000000 4.000000 3.000000 -1046991.750000 0.000000 
-2844.598184 -632.861187 -467.294983 5994577.000000 4.000000 3.000000 -1047489.375000 0.000000 
3402.055625 -1043.622112 -1080.472397 140875.000000 3.000000 2.000000 -1047930.187500 0.000000 
3048.640586 -658.682781 -483.171570 7723510.000000 1.000000 1.000000 -1047226.375000 0.000000 
3043.538047 -840.296489 -892.695892 6530432.000000 1.000000 1.000000 -1047409.000000 0.000000 
3402.064414 -1037.179912 -1083.660896 140921.000000 3.000000 2.000000 -1047930.187500 0.000000 
-3198.024453 -1152.075695 -1061.460297 10441543.000000 3.000000 2.000000 -1046905.062500 0.000000 
3047.972617 -855.849590 -519.195129 5636529.000000 2.000000 1.000000 -1047551.062500 0.000000 
3053.830039 -628.420024 -396.616211 8620140.000000 5.000000 2.000000 -1047103.562500 0.000000 
-2948.569863 -775.903301 -302.439270 8065245.000000 6.000000 5.000000 -1047174.250000 0.000000 
2802.129844 -366.105083 -1013.349197 8918483.000000 1.000000 1.000000 -1047067.375000 0.000000 
-2598.348184 -1065.265300 -1081.068901 6878333.000000 7.000000 5.000000 -1047349.875000 0.000000 
3401.697227 -1024.060710 -1090.570499 141013.000000 6.000000 6.000000 -1047930.125000 0.000000 
2801.955039 -558.256938 -1066.401398 5636253.000000 2.000000 1.000000 -1047551.062500 0.000000 
-2953.564004 -739.231975 -647.554108 9249229.000000 3.000000 2.000000 -1047026.187500 0.000000 
2802.266562 -1265.274486 -1026.614799 7727713.000000 2.000000 2.000000 -1047225.750000 0.000000 
-2654.207559 -321.557842 -1090.368401 6289773.000000 1.000000 1.000000 -1047443.062500 4.000000 
-2839.612344 -937.043926 -837.906403 5399791.000000 3.000000 1.000000 -1047584.250000 0.000000 
-2792.986855 -1423.394496 -1138.379000 326797.000000 7.000000 2.000000 -1047921.687500 0.000000 
-3198.339639 -1123.007305 -1078.130302 8660743.000000 5.000000 2.000000 -1047096.500000 0.000000 
-3189.313760 -321.516704 -1009.747604 7477672.000000 1.000000 1.000000 -1047257.937500 5.000000 
-2949.859902 -899.131084 -374.879578 9546727.000000 3.000000 3.000000 -1046992.625000 0.000000 
3046.935508 -805.969219 -618.871704 8322081.000000 1.000000 1.000000 -1047140.625000 0.000000 
-3197.656533 -1374.220287 -1054.798103 10740303.000000 3.000000 3.000000 -1046880.375000 0.000000 
-2777.231973 -321.496929 -1093.923801 7471863.000000 1.000000 1.000000 -1047258.937500 5.000000 
3047.154258 -773.557598 -598.643005 8620911.000000 1.000000 1.000000 -1047103.500000 0.000000 
-3110.690225 -321.581279 -1084.505600 5999133.000000 1.000000 1.000000 -1047488.562500 2.000000 
-2686.701699 -1423.258007 -1085.395203 326843.000000 7.000000 3.000000 -1047921.687500 0.000000 
-2956.784707 -824.619304 -922.942505 10735612.000000 2.000000 2.000000 -1046881.125000 0.000000 
-3198.008096 -1282.677715 -1055.989098 10739813.000000 3.000000 2.000000 -1046880.437500 0.000000 
-2952.648965 -790.850811 -573.403076 8656958.000000 5.000000 3.000000 -1047097.187500 0.000000 
-2700.360391 -1421.475994 -1092.305000 326843.000000 7.000000 7.000000 -1047921.687500 0.000000 
-2713.316934 -321.591167 -1088.061798 8652063.000000 1.000000 1.000000 -1047098.125000 3.000000 
-2956.667520 -668.914287 -867.852692 9248881.000000 3.000000 1.000000 -1047026.187500 0.000000 
-2937.556191 -631.028057 -248.098999 5995555.000000 1.000000 1.000000 -1047489.250000 2.000000 
-3180.301064 -321.481060 -1092.534199 8362473.000000 1.000000 1.000000 -1047133.500000 5.000000 
2801.986289 -1118.881084 -1051.246399 6235243.000000 2.000000 1.000000 -1047455.187500 0.000000 
-2855.550332 -623.819805 -814.703094 7472980.000000 1.000000 1.000000 -1047258.812500 4.000000 
-2624.093301 -321.667095 -1069.530403 10134803.000000 1.000000 1.000000 -1046932.875000 0.000000 
-2603.470742 -1420.391201 -1044.066101 326889.000000 6.000000 3.000000 -1047921.687500 0.000000 
-2950.425332 -876.943523 -369.376526 8361276.000000 5.000000 2.000000 -1047133.750000 0.000000 
-2749.902383 -321.556743 -1087.390499 5995213.000000 1.000000 1.000000 -1047489.250000 3.000000 
3096.638633 -625.394023 -724.850708 6827231.000000 5.000000 4.000000 -1047360.937500 0.000000 
-2598.143594 -1407.371105 -1042.156898 326935.000000 1.000000 1.000000 -1047921.625000 0.000000 
-2733.109902 -321.537456 -1000.303207 6290752.000000 2.000000 1.000000 -1047442.875000 2.000000 
3136.683555 -622.497905 -918.630295 5932352.000000 3.000000 2.000000 -1047503.625000 0.000000 
-2598.138711 -1366.171489 -1044.575203 327073.000000 1.000000 1.000000 -1047921.625000 0.000000 
2802.172812 -792.832012 -1015.520004 8621683.000000 1.000000 1.000000 -1047103.437500 0.000000 
-2952.188516 -940.733196 -557.764099 10141169.000000 2.000000 2.000000 -1046931.937500 0.000000 
-2597.940469 -838.654705 -1080.470497 5991013.000000 5.000000 3.000000 -1047490.000000 0.000000 
-2952.415566 -1064.688396 -497.098328 9250838.000000 5.000000 1.000000 -1047025.937500 0.000000 
-3198.013711 -1281.390514 -1063.200500 10144883.000000 4.000000 3.000000 -1046931.250000 0.000000 
3042.464805 -692.848674 -974.140701 10715313.000000 1.000000 1.000000 -1046884.187500 0.000000 
-2845.065957 -804.308513 -404.488892 7177296.000000 7.000000 3.000000 -1047302.375000 0.000000 
-2956.207559 -666.725627 -855.610687 9545471.000000 2.000000 1.000000 -1046992.750000 0.000000 
3051.581992 -695.967388 -241.546997 6827858.000000 1.000000 1.000000 -1047360.875000 0.000000 
-2652.876992 -321.523784 -1093.149502 7765093.000000 1.000000 1.000000 -1047217.187500 5.000000 
-2847.673379 -1091.257488 -250.998779 5695886.000000 5.000000 4.000000 -1047537.750000 0.000000 
-2598.162148 -1200.868602 -1055.204102 327625.000000 1.000000 1.000000 -1047921.500000 0.000000 
3043.363242 -993.301799 -888.600800 6531342.000000 2.000000 1.000000 -1047408.875000 0.000000 
-2598.165078 -1173.235698 -1057.121101 327717.000000 1.000000 1.000000 -1047921.500000 0.000000 
-2598.167031 -1159.409893 -1058.095596 327763.000000 1.000000 1.000000 -1047921.500000 0.000000 
-2837.973184 -765.088298 -968.833893 5697432.000000 4.000000 2.000000 -1047537.500000 0.000000 
-2841.303262 -872.095989 -756.838013 5993390.000000 5.000000 4.000000 -1047489.500000 0.000000 
-2892.996621 -630.882427 -249.676392 7473464.000000 1.000000 1.000000 -1047258.750000 4.000000 
-2953.490762 -683.404094 -658.826111 10734700.000000 1.000000 1.000000 -1046881.250000 0.000000 
-2846.200234 -627.253276 -547.823730 5698268.000000 1.000000 1.000000 -1047537.375000 1.000000 
-3197.567910 -1225.766490 -1077.719498 8364853.000000 5.000000 4.000000 -1047133.000000 0.000000 
2801.983359 -741.964885 -1064.151703 5637443.000000 2.000000 1.000000 -1047550.937500 0.000000 
3101.821250 -990.393718 205.308716 336602.000000 2.000000 2.000000 -1047918.937500 0.000000 
3102.112266 -984.312786 203.380615 336648.000000 2.000000 1.000000 -1047918.937500 0.000000 
3101.815391 -984.172405 203.087646 336648.000000 2.000000 2.000000 -1047918.937500 0.000000 
-2955.867227 -805.011699 -893.583588 7769781.000000 7.000000 7.000000 -1047216.437500 0.000000 
-2838.282754 -662.877971 -972.568802 5697992.000000 3.000000 2.000000 -1047537.375000 0.000000 
3102.109336 -971.849773 198.915405 336740.000000 2.000000 1.000000 -1047918.937500 0.000000 
3079.402305 -630.365947 -370.376221 7125849.000000 5.000000 5.000000 -1047314.187500 0.000000 
-3197.671426 -600.905498 -1086.554199 8659063.000000 5.000000 4.000000 -1047096.812500 0.000000 
3101.824180 -965.469707 196.385986 336786.000000 2.000000 2.000000 -1047918.937500 0.000000 
-2951.022988 -796.903606 -498.767883 8065317.000000 6.000000 5.000000 -1047174.250000 0.000000 
-3197.244180 -1220.754497 -1070.145203 9550513.000000 5.000000 5.000000 -1046991.875000 0.000000 
3107.880820 -624.974468 -723.280487 10415502.000000 6.000000 3.000000 -1046909.000000 0.000000 
3048.644492 -683.364177 -481.997803 7723650.000000 1.000000 1.000000 -1047226.375000 0.000000 
-2948.509805 -979.936870 -242.291809 9547146.000000 3.000000 2.000000 -1046992.500000 0.000000 
2802.183555 -686.316692 -1042.074997 7127323.000000 1.000000 1.000000 -1047314.000000 0.000000 
-2875.700234 -628.242656 -465.723999 5994927.000000 1.000000 1.000000 -1047489.312500 2.000000 
-2847.260293 -1075.638591 -253.749329 5695956.000000 4.000000 3.000000 -1047537.687500 0.000000 
3138.386680 -579.775981 -177.293823 10714680.000000 7.000000 2.000000 -1046884.312500 0.000000 
-2915.740762 -628.706279 -426.305298 6882946.000000 1.000000 1.000000 -1047349.187500 3.000000 
3043.490195 -1046.602703 -875.525208 6829962.000000 2.000000 1.000000 -1047360.625000 0.000000 
-2948.879434 -735.188701 -286.913818 10437337.000000 1.000000 1.000000 -1046905.750000 0.000000 
-2841.341348 -1001.848430 -757.880707 6289140.000000 5.000000 4.000000 -1047443.125000 0.000000 
-2953.740762 -699.871990 -686.283813 8656609.000000 5.000000 4.000000 -1047097.250000 0.000000 
-2947.771523 -736.024211 -206.563110 9249155.000000 3.000000 3.000000 -1047026.187500 0.000000 
-2950.313516 -1058.266277 -383.579224 10439298.000000 2.000000 1.000000 -1046905.500000 0.000000 
3075.045859 -321.499248 -1041.632500 7123963.000000 5.000000 3.000000 -1047314.437500 0.000000 
3101.832969 -902.558208 173.331177 337246.000000 2.000000 2.000000 -1047918.812500 0.000000 
-2956.971719 -661.480388 -938.324997 10436922.000000 2.000000 2.000000 -1046905.812500 0.000000 
-2952.123086 -960.526409 -529.037415 10438739.000000 1.000000 1.000000 -1046905.562500 0.000000 
-2846.659219 -816.388103 -356.387573 6289906.000000 5.000000 5.000000 -1047443.000000 0.000000 
2801.955039 -1024.867473 -1047.951103 6532743.000000 2.000000 1.000000 -1047408.562500 0.000000 
3051.581992 -1047.787029 -250.710388 6531618.000000 1.000000 1.000000 -1047408.812500 0.000000 
-2805.210977 -1422.408199 -1076.814598 523264.000000 7.000000 3.000000 -1047912.875000 0.000000 
-2813.362832 -1421.534893 -1081.321899 523264.000000 7.000000 4.000000 -1047912.875000 0.000000 
-2950.698281 -975.415691 -418.886108 8953897.000000 5.000000 3.000000 -1047061.437500 0.000000 
-2822.186074 -1420.589702 -1086.200298 523264.000000 7.000000 6.000000 -1047912.875000 0.000000 
-3198.693887 -1240.648113 -1078.254097 8068823.000000 7.000000 2.000000 -1047173.437500 0.000000 
-2841.663613 -888.429973 -647.062988 5993319.000000 5.000000 1.000000 -1047489.500000 0.000000 
-2953.633340 -770.353679 -678.444000 8656889.000000 5.000000 4.000000 -1047097.187500 0.000000 
-2956.286172 -692.957317 -893.248108 8360791.000000 5.000000 4.000000 -1047133.812500 0.000000 
-2789.413613 -321.560039 -1084.171303 5699533.000000 1.000000 1.000000 -1047537.125000 2.000000 
-2865.932168 -624.385845 -776.720001 8951380.000000 1.000000 1.000000 -1047061.812500 2.000000 
3257.358359 -321.082256 -1054.147400 6227823.000000 4.000000 2.000000 -1047456.312500 0.000000 
-2705.485879 -1419.691204 -1022.344597 523310.000000 7.000000 7.000000 -1047912.875000 0.000000 
-2828.515176 -321.548442 -1003.892105 6587412.000000 1.000000 1.000000 -1047395.437500 4.000000 
-2662.216348 -1411.050899 -999.092102 523356.000000 7.000000 2.000000 -1047912.875000 0.000000 
-2662.997109 -1410.965007 -999.524002 523356.000000 7.000000 3.000000 -1047912.875000 0.000000 
-2847.822305 -1049.837993 -240.225098 6881195.000000 6.000000 4.000000 -1047349.375000 0.000000 
-2952.806680 -868.942119 -613.121277 9546589.000000 3.000000 3.000000 -1046992.625000 0.000000 
-2646.321328 -321.589702 -1088.135502 5994023.000000 1.000000 1.000000 -1047489.437500 3.000000 
3045.986289 -923.194377 -676.545898 7426291.000000 2.000000 1.000000 -1047268.312500 0.000000 
-2659.725625 -1397.985210 -998.400208 523402.000000 7.000000 1.000000 -1047912.812500 0.000000 
-2842.103555 -623.925151 -808.741302 6882040.000000 1.000000 1.000000 -1047349.250000 4.000000 
-2840.908730 -751.179180 -734.908386 5400840.000000 2.000000 1.000000 -1047584.125000 0.000000 
-2838.440957 -662.923809 -902.755005 7177371.000000 7.000000 1.000000 -1047302.375000 0.000000 
-3197.689980 -778.175518 -1073.557999 9845073.000000 3.000000 3.000000 -1046960.875000 0.000000 
-2597.181191 -1249.248394 -1071.817398 5692883.000000 5.000000 1.000000 -1047538.500000 0.000000 
-2665.688027 -1397.319896 -1001.698303 523402.000000 7.000000 7.000000 -1047912.812500 0.000000 
-2839.031289 -1008.564617 -856.007690 5992761.000000 5.000000 1.000000 -1047489.625000 0.000000 
2893.193320 -321.916851 -1049.262398 6826183.000000 5.000000 4.000000 -1047361.062500 0.000000 
3049.880820 -965.897380 -384.410095 6829469.000000 1.000000 1.000000 -1047360.687500 0.000000 
-2661.340371 -1384.458507 -999.990295 523448.000000 7.000000 4.000000 -1047912.812500 0.000000 
-2662.114785 -1384.371013 -1000.418594 523448.000000 7.000000 5.000000 -1047912.812500 0.000000 
3398.496055 -321.510845 -1020.989807 8019473.000000 6.000000 3.000000 -1047182.875000 0.000000 
-2664.468789 -1384.104808 -1001.721100 523448.000000 7.000000 7.000000 -1047912.812500 0.000000 
-2845.885781 -1107.859722 -393.877930 5992407.000000 5.000000 4.000000 -1047489.625000 0.000000 
-2658.448770 -1371.439006 -999.097702 523494.000000 7.000000 2.000000 -1047912.812500 0.000000 
-2954.985391 -1030.135173 -732.024597 9250700.000000 5.000000 2.000000 -1047025.937500 0.000000 
-2660.002480 -1371.260997 -999.957397 523494.000000 7.000000 4.000000 -1047912.812500 0.000000 
-2660.889688 -1371.159404 -1000.448395 523494.000000 7.000000 5.000000 -1047912.812500 0.000000 
-2948.797402 -802.347820 -278.494080 10437757.000000 1.000000 1.000000 -1046905.687500 0.000000 
-2663.139199 -1370.901714 -1001.693405 523494.000000 7.000000 7.000000 -1047912.812500 0.000000 
-2655.893594 -1358.384685 -998.402100 523540.000000 7.000000 1.000000 -1047912.812500 0.000000 
-2949.293496 -978.521892 -306.035095 8953896.000000 5.000000 3.000000 -1047061.437500 0.000000 
3002.520469 -321.753398 -1062.253098 5931093.000000 3.000000 3.000000 -1047503.875000 0.000000 
-2950.953652 -655.960979 -491.358826 8656397.000000 5.000000 5.000000 -1047097.312500 0.000000 
-2956.685586 -630.730937 -870.098999 9248671.000000 3.000000 1.000000 -1047026.250000 0.000000 
-2951.752969 -979.201580 -498.896912 10736519.000000 1.000000 1.000000 -1046881.000000 0.000000 
-2661.834023 -1357.695507 -1001.689697 523540.000000 7.000000 7.000000 -1047912.812500 0.000000 
-2654.576211 -1345.188304 -998.401703 523586.000000 7.000000 1.000000 -1047912.812500 0.000000 
3051.592734 -813.971477 -249.374817 5636247.000000 1.000000 1.000000 -1047551.062500 0.000000 
-2656.551797 -1344.956188 -999.495193 523586.000000 7.000000 3.000000 -1047912.812500 0.000000 
3046.543906 -1004.751873 -632.977173 8024231.000000 1.000000 1.000000 -1047182.312500 0.000000 
-2948.884316 -716.043987 -245.917603 8952705.000000 5.000000 2.000000 -1047061.625000 0.000000 
-2845.160195 -795.728496 -396.904907 6881686.000000 6.000000 2.000000 -1047349.312500 0.000000 
-2660.525918 -1344.489086 -1001.695099 523586.000000 7.000000 7.000000 -1047912.812500 0.000000 
-2954.655313 -861.080974 -680.345001 8361279.000000 5.000000 1.000000 -1047133.750000 0.000000 
-2954.577188 -687.965374 -724.247986 9842480.000000 2.000000 1.000000 -1046961.250000 0.000000 
-2598.334023 -1079.931072 -1079.924896 6582373.000000 5.000000 4.000000 -1047396.312500 0.000000 
-3107.035439 -321.538188 -1006.165604 8361492.000000 1.000000 1.000000 -1047133.687500 5.000000 
-2838.626504 -865.816387 -971.759399 5993392.000000 5.000000 4.000000 -1047489.500000 0.000000 
-2844.990762 -643.377483 -489.504822 6290607.000000 5.000000 5.000000 -1047442.937500 0.000000 
-2957.179727 -725.443889 -884.125793 8656751.000000 5.000000 1.000000 -1047097.250000 0.000000 
3055.117148 -629.060039 -396.483276 8620140.000000 5.000000 3.000000 -1047103.562500 0.000000 
-2952.144570 -936.961895 -531.137329 10438599.000000 2.000000 1.000000 -1046905.562500 0.000000 
-2653.865273 -1318.562114 -999.498703 523678.000000 7.000000 3.000000 -1047912.750000 0.000000 
-2654.751992 -1318.455303 -999.989594 523678.000000 7.000000 4.000000 -1047912.750000 0.000000 
-2954.451211 -915.564189 -662.283600 8657449.000000 5.000000 1.000000 -1047097.125000 0.000000 
-2947.723672 -901.397014 -208.236084 8953545.000000 5.000000 4.000000 -1047061.500000 0.000000 
-2838.899453 -776.677471 -870.241486 5993811.000000 4.000000 1.000000 -1047489.437500 0.000000 
-2957.019570 -818.864727 -869.451385 8953271.000000 5.000000 1.000000 -1047061.562500 0.000000 
-2847.268105 -896.429912 -283.984497 7177225.000000 7.000000 5.000000 -1047302.375000 0.000000 
-2652.484902 -1305.368907 -999.495697 523724.000000 7.000000 3.000000 -1047912.750000 0.000000 
-2653.374063 -1305.260509 -999.988098 523724.000000 7.000000 4.000000 -1047912.750000 0.000000 
-2844.511270 -957.663188 -417.311584 5993037.000000 5.000000 1.000000 -1047489.562500 0.000000 
-2654.935586 -1305.069988 -1000.852905 523724.000000 7.000000 6.000000 -1047912.750000 0.000000 
-2656.455117 -1304.884594 -1001.694504 523724.000000 7.000000 7.000000 -1047912.750000 0.000000 
-2649.112344 -1292.421215 -998.399994 523770.000000 7.000000 1.000000 -1047912.750000 0.000000 
3046.083945 -666.157878 -686.022888 7424821.000000 1.000000 1.000000 -1047268.437500 0.000000 
-2846.434609 -690.643474 -320.009216 5697916.000000 3.000000 2.000000 -1047537.375000 0.000000 
-3116.475381 -321.662090 -1071.096703 10435733.000000 1.000000 1.000000 -1046905.937500 0.000000 
-2896.763223 -623.263408 -868.566895 9248041.000000 1.000000 1.000000 -1047026.312500 2.000000 
2802.264609 -651.834697 -1061.032898 5934523.000000 2.000000 2.000000 -1047503.375000 0.000000 
-2944.353066 -629.739849 -340.552307 7178765.000000 1.000000 1.000000 -1047302.250000 4.000000 
3049.204062 -1061.491375 -437.140320 10716851.000000 1.000000 1.000000 -1046884.062500 0.000000 
3025.778281 -321.496196 -1052.397003 6527213.000000 4.000000 3.000000 -1047409.562500 0.000000 
-2956.195840 -678.639324 -854.937408 9545541.000000 1.000000 1.000000 -1046992.750000 0.000000 
-2597.615273 -778.489910 -1084.879303 6583073.000000 5.000000 2.000000 -1047396.062500 0.000000 
-3197.971475 -1329.451702 -1068.520699 9551003.000000 5.000000 3.000000 -1046991.750000 0.000000 
-2956.016641 -1073.095989 -843.763397 9250911.000000 4.000000 3.000000 -1047025.937500 0.000000 
-3198.328408 -1078.147075 -1080.158203 8364573.000000 5.000000 2.000000 -1047133.062500 0.000000 
-2646.259316 -1266.049785 -998.395996 523862.000000 7.000000 1.000000 -1047912.687500 0.000000 
-2647.518105 -1265.890605 -999.093796 523862.000000 7.000000 2.000000 -1047912.687500 0.000000 
-2648.254434 -1265.797496 -999.501602 523862.000000 7.000000 3.000000 -1047912.687500 0.000000 
-2649.135781 -1265.686107 -999.990097 523862.000000 7.000000 4.000000 -1047912.687500 0.000000 
-2649.909219 -1265.588298 -1000.418701 523862.000000 7.000000 5.000000 -1047912.687500 0.000000 
-2650.746133 -1265.482402 -1000.882507 523862.000000 7.000000 6.000000 -1047912.687500 0.000000 
-2846.592324 -865.196819 -368.335205 6585726.000000 5.000000 5.000000 -1047395.625000 0.000000 
3051.584922 -646.186809 -244.612915 10116320.000000 1.000000 1.000000 -1046935.562500 0.000000 
2802.277305 -1245.845012 -1040.977997 6832203.000000 2.000000 2.000000 -1047360.187500 0.000000 
-2646.800332 -1252.611705 -999.500702 523908.000000 7.000000 3.000000 -1047912.687500 0.000000 
-2957.029336 -1081.141582 -867.966400 8361911.000000 5.000000 1.000000 -1047133.625000 0.000000 
2905.619102 -322.189678 -1017.554504 8618883.000000 5.000000 4.000000 -1047103.687500 0.000000 
-2955.424355 -1050.352275 -820.791107 9844581.000000 3.000000 3.000000 -1046960.937500 0.000000 
3043.412070 -846.969219 -904.023193 6232302.000000 2.000000 2.000000 -1047455.687500 0.000000 
3044.094687 -705.710796 -846.505890 7723792.000000 1.000000 1.000000 -1047226.375000 0.000000 
-3152.211465 -1421.531398 -1061.210403 719592.000000 4.000000 2.000000 -1047904.875000 0.000000 
-2955.830117 -1030.369121 -772.744904 8065810.000000 6.000000 1.000000 -1047174.125000 0.000000 
-2846.664102 -1028.004314 -360.973572 7177086.000000 7.000000 6.000000 -1047302.437500 0.000000 
-3037.231240 -1417.411998 -998.356201 719638.000000 7.000000 1.000000 -1047904.875000 0.000000 
-3038.545449 -1417.303707 -999.081100 719638.000000 7.000000 2.000000 -1047904.875000 0.000000 
-2956.144570 -739.013896 -851.516388 9545891.000000 2.000000 2.000000 -1046992.750000 0.000000 
-2598.568398 -689.377178 -1084.813904 6287603.000000 5.000000 5.000000 -1047443.437500 0.000000 
3026.384727 -322.069194 -1031.887001 7721623.000000 5.000000 4.000000 -1047226.625000 0.000000 
-3041.843301 -1417.031902 -1000.900299 719638.000000 7.000000 6.000000 -1047904.875000 0.000000 
3051.004844 -641.027629 -287.621277 6529168.000000 1.000000 1.000000 -1047409.187500 0.000000 
-3036.190469 -1404.072490 -998.356094 719684.000000 7.000000 1.000000 -1047904.875000 0.000000 
-2842.215371 -835.682781 -597.543823 7177228.000000 7.000000 1.000000 -1047302.375000 0.000000 
-3038.276406 -1403.897594 -999.506805 719684.000000 7.000000 3.000000 -1047904.875000 0.000000 
-2951.876504 -745.237102 -511.728516 9545888.000000 3.000000 2.000000 -1046992.750000 0.000000 
3226.695273 -322.366924 -1049.625397 6526303.000000 5.000000 5.000000 -1047409.687500 0.000000 
-2841.206094 -799.673687 -685.403198 6585869.000000 5.000000 1.000000 -1047395.625000 0.000000 
-2844.306191 -659.976482 -463.171021 5994437.000000 5.000000 2.000000 -1047489.375000 0.000000 
-2949.273965 -813.554912 -305.093689 9249576.000000 3.000000 2.000000 -1047026.125000 0.000000 
-3036.440957 -1390.622905 -999.079193 719730.000000 7.000000 2.000000 -1047904.875000 0.000000 
-2597.961465 -449.408916 -1090.265598 6583983.000000 5.000000 3.000000 -1047395.937500 0.000000 
3017.636680 -322.523296 -1037.267998 7422863.000000 5.000000 5.000000 -1047268.687500 0.000000 
-3038.845986 -1390.417614 -1000.406204 719730.000000 7.000000 5.000000 -1047904.875000 0.000000 
-3039.680703 -1390.346385 -1000.866699 719730.000000 7.000000 6.000000 -1047904.875000 0.000000 
-2935.421426 -629.904033 -335.283875 9248456.000000 1.000000 1.000000 -1047026.312500 1.000000 
-3034.100137 -1377.394298 -998.383301 719776.000000 7.000000 1.000000 -1047904.812500 0.000000 
-3035.356484 -1377.285198 -999.076706 719776.000000 7.000000 2.000000 -1047904.812500 0.000000 
-3036.195107 -1377.212413 -999.539398 719776.000000 7.000000 3.000000 -1047904.812500 0.000000 
3112.761680 -626.836040 -723.061615 10415502.000000 6.000000 6.000000 -1046909.000000 0.000000 
-2598.350625 -1233.195995 -1076.059402 6285853.000000 5.000000 4.000000 -1047443.812500 0.000000 
-2948.829629 -1006.174175 -237.922180 9547286.000000 3.000000 1.000000 -1046992.500000 0.000000 
-2843.156289 -954.231487 -639.897186 5993039.000000 5.000000 5.000000 -1047489.562500 0.000000 
3046.134727 -624.001567 -727.664612 6827441.000000 5.000000 1.000000 -1047360.875000 0.000000 
-2848.092813 -681.015483 -210.181519 5697985.000000 3.000000 3.000000 -1047537.375000 0.000000 
-2848.590859 -889.118511 -204.861572 5993385.000000 5.000000 5.000000 -1047489.500000 0.000000 
-2954.267129 -1013.459514 -699.650208 9844370.000000 1.000000 1.000000 -1046961.000000 0.000000 
2875.396445 -320.630107 -1049.521301 6826253.000000 5.000000 1.000000 -1047361.062500 0.000000 
-2848.039102 -965.308513 -218.612915 6289345.000000 5.000000 4.000000 -1047443.125000 0.000000 
-3039.022500 -1363.528087 -1001.706497 719822.000000 7.000000 7.000000 -1047904.812500 0.000000 
-2866.273965 -621.838115 -980.548401 5994862.000000 1.000000 1.000000 -1047489.312500 2.000000 
-2841.508340 -753.395916 -661.570313 5993949.000000 5.000000 1.000000 -1047489.437500 0.000000 
-2950.796426 -1018.209514 -450.622986 9844368.000000 2.000000 2.000000 -1046961.000000 0.000000 
-2949.934121 -667.440593 -330.249695 9248806.000000 3.000000 1.000000 -1047026.250000 0.000000 
3042.371055 -689.590190 -985.374496 10116533.000000 1.000000 1.000000 -1046935.562500 0.000000 
-2642.686563 -321.518657 -1093.121300 7764953.000000 1.000000 1.000000 -1047217.250000 5.000000 
-2598.275430 -886.205608 -1077.350899 5694493.000000 5.000000 4.000000 -1047538.125000 0.000000 
-3030.745645 -1337.395793 -998.383896 719914.000000 7.000000 1.000000 -1047904.812500 0.000000 
-2848.474648 -1063.264324 -220.800720 6585165.000000 5.000000 5.000000 -1047395.687500 0.000000 
-2948.385293 -824.066509 -229.379822 9843246.000000 2.000000 1.000000 -1046961.125000 0.000000 
-2955.063027 -657.619976 -717.497192 7769639.000000 7.000000 2.000000 -1047216.437500 0.000000 
-3034.405068 -1337.061901 -1000.404099 719914.000000 7.000000 5.000000 -1047904.812500 0.000000 
-2598.342813 -1208.607311 -1076.457100 6285923.000000 5.000000 4.000000 -1047443.812500 0.000000 
-3036.770791 -1336.845989 -1001.710007 719914.000000 7.000000 7.000000 -1047904.812500 0.000000 
2802.261680 -643.806926 -1065.356796 5636813.000000 2.000000 2.000000 -1047551.000000 0.000000 
-3197.969521 -432.874858 -1090.772598 8363033.000000 5.000000 3.000000 -1047133.375000 0.000000 
-2598.222207 -418.842876 -1084.345398 5696943.000000 3.000000 3.000000 -1047537.562500 0.000000 
2802.251914 -1169.719097 -1022.575500 8025913.000000 1.000000 1.000000 -1047182.000000 0.000000 
-3033.257363 -1323.726299 -1000.409698 719960.000000 7.000000 5.000000 -1047904.812500 0.000000 
-3111.891396 -321.539897 -1089.797901 6590983.000000 1.000000 1.000000 -1047394.687500 3.000000 
-2955.696816 -720.965312 -838.923492 9842691.000000 2.000000 2.000000 -1046961.187500 0.000000 
-3028.416299 -1310.738597 -998.386795 720006.000000 7.000000 1.000000 -1047904.750000 0.000000 
-3029.663125 -1310.621105 -999.075195 720006.000000 7.000000 2.000000 -1047904.750000 0.000000 
-2842.799355 -880.279888 -584.537598 6881478.000000 6.000000 2.000000 -1047349.375000 0.000000 
-3198.379434 -1386.540996 -1054.645103 10740373.000000 2.000000 1.000000 -1046880.375000 0.000000 
-3032.072061 -1310.394115 -1000.405396 720006.000000 7.000000 5.000000 -1047904.750000 0.000000 
-2956.843789 -943.786785 -929.518600 10438672.000000 2.000000 2.000000 -1046905.562500 0.000000 
-2843.607461 -772.981609 -572.638916 6290048.000000 5.000000 4.000000 -1047443.000000 0.000000 
-3197.640176 -1334.909496 -1055.308899 10740093.000000 3.000000 3.000000 -1046880.437500 0.000000 
-2630.205117 -1421.529293 -1037.661598 916105.000000 4.000000 2.000000 -1047896.062500 0.000000 
-2842.338906 -625.729351 -630.142212 9544209.000000 1.000000 1.000000 -1046992.937500 0.000000 
-2644.477578 -1420.662593 -1046.239502 916105.000000 4.000000 4.000000 -1047896.062500 0.000000 
-3197.978799 -1361.737194 -1068.035103 9551143.000000 5.000000 3.000000 -1046991.750000 0.000000 
3108.015586 -628.511333 -436.858704 6528819.000000 3.000000 2.000000 -1047409.187500 0.000000 
-2715.736367 -321.511455 -1005.198807 6585942.000000 1.000000 1.000000 -1047395.625000 4.000000 
2802.294883 -1220.698802 -1045.724098 6533863.000000 2.000000 2.000000 -1047408.187500 0.000000 
3293.855430 -321.464580 -1063.133698 5631493.000000 2.000000 1.000000 -1047551.750000 0.000000 
-2954.513711 -950.743083 -752.583191 8953830.000000 5.000000 4.000000 -1047061.437500 0.000000 
-5898.060708 -1052.205730 204.420410 916559.000000 1.000000 1.000000 -1047895.875000 0.000000 
-2957.092813 -1001.831096 -873.146515 8361701.000000 5.000000 1.000000 -1047133.687500 0.000000 
-3039.942910 -321.478374 -1093.868401 7475573.000000 1.000000 1.000000 -1047258.375000 5.000000 
-5898.052163 -1000.510784 203.190308 916697.000000 1.000000 1.000000 -1047895.812500 0.000000 
-5898.306436 -682.513774 207.342041 10761500.000000 5.000000 2.000000 -1046876.437500 0.000000 
-2921.066934 -624.397930 -774.408905 5995420.000000 1.000000 1.000000 -1047489.250000 2.000000 
-2954.948281 -1011.793193 -758.955688 8657800.000000 5.000000 3.000000 -1047097.062500 0.000000 
-5898.053750 -931.529277 201.430298 916881.000000 1.000000 1.000000 -1047895.750000 0.000000 
2802.220664 -891.295208 -1030.182602 7725683.000000 1.000000 1.000000 -1047226.125000 0.000000 
-2843.260293 -956.209270 -600.293518 5399719.000000 3.000000 3.000000 -1047584.312500 0.000000 
2802.275352 -1110.215007 -1055.523399 5937323.000000 2.000000 2.000000 -1047502.750000 0.000000 
-3197.745645 -572.827617 -1068.945900 10438043.000000 2.000000 2.000000 -1046905.687500 0.000000 
-2598.658242 -534.619731 -1000.278793 6879102.000000 7.000000 7.000000 -1047349.750000 0.000000 
-2956.206582 -784.393291 -887.302094 8361071.000000 5.000000 4.000000 -1047133.750000 0.000000 
-5898.028726 -810.652202 198.040405 917203.000000 1.000000 1.000000 -1047895.625000 0.000000 
3140.527305 -581.484844 -174.990723 6230127.000000 2.000000 2.000000 -1047455.937500 0.000000 
-2597.562539 -1141.220806 -1075.723602 5989823.000000 5.000000 2.000000 -1047490.250000 0.000000 
3102.160117 -856.660808 -172.121521 8621189.000000 1.000000 1.000000 -1047103.500000 0.000000 
-2952.091348 -808.629619 -529.755127 9249578.000000 3.000000 2.000000 -1047026.125000 0.000000 
-2598.674844 -1179.986705 -1078.277199 6582163.000000 5.000000 5.000000 -1047396.312500 0.000000 
-2843.860879 -971.897686 -526.954102 5992968.000000 5.000000 3.000000 -1047489.562500 0.000000 
-3197.667031 -914.509075 -1074.694298 9549043.000000 4.000000 4.000000 -1046992.125000 0.000000 
-5898.082437 -672.217327 193.640137 917571.000000 1.000000 1.000000 -1047895.437500 0.000000 
-2847.893105 -1420.587993 -998.488998 1112387.000000 7.000000 1.000000 -1047887.000000 0.000000 
-2953.829629 -720.517803 -668.270508 8952779.000000 5.000000 3.000000 -1047061.625000 0.000000 
-2953.052773 -1070.064495 -549.366272 8361838.000000 5.000000 1.000000 -1047133.625000 0.000000 
-2850.355996 -1420.506206 -999.967300 1112387.000000 7.000000 4.000000 -1047887.000000 0.000000 
3045.323203 -919.147808 -748.732605 9818262.000000 1.000000 1.000000 -1046965.125000 0.000000 
-2954.273965 -879.549602 -728.057709 9546660.000000 3.000000 3.000000 -1046992.625000 0.000000 
3104.277305 -626.229961 -642.329407 5932560.000000 2.000000 2.000000 -1047503.625000 0.000000 
-2954.601602 -642.725872 -727.610687 9842200.000000 2.000000 1.000000 -1046961.250000 0.000000 
-2898.114297 -1068.219707 207.753662 1702473.000000 1.000000 1.000000 -1047864.312500 0.000000 
-2898.109902 -1057.079814 207.837036 1702519.000000 1.000000 1.000000 -1047864.312500 0.000000 
-2953.865762 -1065.416179 -695.645691 9844650.000000 3.000000 3.000000 -1046960.937500 0.000000 
-2597.373086 -363.015117 -1007.420502 6879382.000000 7.000000 2.000000 -1047349.687500 0.000000 
-2898.109414 -1023.662700 208.031372 1702657.000000 1.000000 1.000000 -1047864.250000 0.000000 
3085.738242 -625.970439 -643.585785 8022061.000000 5.000000 3.000000 -1047182.562500 0.000000 
-2953.956582 -975.957927 -702.499695 9844160.000000 3.000000 3.000000 -1046961.000000 0.000000 
-3005.660195 -321.546123 -1000.431595 8655562.000000 2.000000 1.000000 -1047097.437500 3.000000 
-2898.110391 -979.110515 208.175415 1702841.000000 1.000000 1.000000 -1047864.187500 0.000000 
3144.456992 -321.470806 -1055.665001 6228383.000000 4.000000 3.000000 -1047456.187500 0.000000 
-2951.914102 -1090.157085 -514.984497 8954388.000000 5.000000 3.000000 -1047061.375000 0.000000 
3049.818320 -843.034404 -387.794922 8621260.000000 1.000000 1.000000 -1047103.500000 0.000000 
-2898.118691 -934.560222 208.185181 1703025.000000 1.000000 1.000000 -1047864.125000 0.000000 
3013.244102 -323.040508 -1004.891006 9216963.000000 6.000000 6.000000 -1047031.437500 0.000000 
-3094.569131 -321.529399 -1010.065903 7476342.000000 1.000000 1.000000 -1047258.187500 5.000000 
-2954.074746 -1039.710125 -659.880188 8361769.000000 5.000000 2.000000 -1047133.625000 0.000000 
-2898.114785 -890.008770 208.071045 1703209.000000 1.000000 1.000000 -1047864.062500 0.000000 
-2898.108438 -878.870525 208.024658 1703255.000000 1.000000 1.000000 -1047864.062500 0.000000 
-2841.193398 -665.620830 -687.459686 6290469.000000 5.000000 1.000000 -1047442.937500 0.000000 
-3198.726357 -1297.865398 -1071.497704 9254133.000000 5.000000 1.000000 -1047025.312500 0.000000 
-2846.193887 -630.759746 -288.334900 6290675.000000 5.000000 1.000000 -1047442.875000 0.000000 
-2898.117227 -834.313091 207.740845 1703439.000000 1.000000 1.000000 -1047864.000000 0.000000 
-2898.110879 -823.172771 207.653931 1703485.000000 1.000000 1.000000 -1047864.000000 0.000000 
3044.373984 -1070.193401 -825.632385 8024582.000000 1.000000 1.000000 -1047182.250000 0.000000 
2801.952109 -1181.475688 -1037.061203 7130193.000000 2.000000 1.000000 -1047313.437500 0.000000 
-2845.373086 -663.007427 -402.698914 5401397.000000 2.000000 1.000000 -1047584.062500 0.000000 
-2950.153848 -889.579326 -347.208923 8657306.000000 5.000000 2.000000 -1047097.125000 0.000000 
-3064.729775 -321.535503 -1010.143600 7475922.000000 1.000000 1.000000 -1047258.312500 5.000000 
-2898.125039 -756.316387 206.934082 1703761.000000 1.000000 1.000000 -1047863.937500 0.000000 
-2898.112832 -745.171428 206.792847 1703807.000000 1.000000 1.000000 -1047863.875000 0.000000 
-2837.753457 -1056.265483 -958.057800 5695962.000000 5.000000 1.000000 -1047537.687500 0.000000 
-2898.112832 -722.878093 206.473511 1703899.000000 1.000000 1.000000 -1047863.875000 0.000000 
-2957.382363 -714.997295 -946.597702 10139842.000000 2.000000 1.000000 -1046932.062500 0.000000 
-2948.216348 -1109.502422 -239.162781 10439577.000000 2.000000 2.000000 -1046905.437500 0.000000 
