ply
format ascii 1.0
comment Created by CloudCompare v2.12 alpha
comment Created 6/6/2021 1:20 AM
obj_info Generated by CloudCompare!
element vertex 503
property double x
property double y
property double z
property float scalar_fullwaveIndex
property float scalar_NumberOfReturns
property float scalar_ReturnNumber
property float scalar_GpsTime
property float scalar_Intensity
end_header
2822.211875 -1421.260494 -1143.520400 556562.000000 3.000000 3.000000 -727509.312500 0.000000 
2826.337852 -1417.591899 -999.359497 556607.000000 7.000000 1.000000 -727509.312500 0.000000 
3047.821250 -675.623088 -579.434326 7137956.000000 7.000000 6.000000 -726785.562500 0.000000 
2801.415977 -954.015178 -1083.002998 6941768.000000 7.000000 2.000000 -726807.312500 0.000000 
3043.873008 -1057.063884 -818.605194 7335069.000000 3.000000 1.000000 -726754.062500 0.000000 
3154.234336 -962.015728 -379.983093 1160547.000000 1.000000 1.000000 -727364.062500 1.000000 
2822.737266 -1415.804302 -1000.337799 556607.000000 7.000000 6.000000 -727509.312500 0.000000 
3004.188437 -643.821025 -109.494141 9097695.000000 7.000000 1.000000 -726477.125000 0.000000 
2835.046836 -1421.847896 -1140.078200 556608.000000 3.000000 1.000000 -727509.312500 0.000000 
2834.423789 -1421.538295 -1140.275700 556608.000000 3.000000 2.000000 -727509.312500 0.000000 
2833.915000 -1421.285503 -1140.437000 556608.000000 3.000000 3.000000 -727509.312500 0.000000 
3380.581992 -494.625103 -101.021729 7918760.000000 1.000000 1.000000 -726655.000000 0.000000 
3049.917930 -1021.245098 -388.242126 7530475.000000 2.000000 2.000000 -726720.937500 0.000000 
3053.907187 -1202.415111 -109.022705 7726848.000000 7.000000 2.000000 -726687.625000 0.000000 
2825.926719 -1411.600399 -999.996307 556653.000000 6.000000 4.000000 -727509.312500 0.000000 
3152.117148 -581.748394 -172.691895 7723996.000000 2.000000 2.000000 -726688.000000 0.000000 
2823.414023 -1410.348293 -1000.679596 556653.000000 6.000000 6.000000 -727509.312500 0.000000 
2846.620078 -1421.844600 -1137.033600 556654.000000 3.000000 1.000000 -727509.312500 0.000000 
3045.007773 -1018.675273 -756.701813 8117943.000000 2.000000 1.000000 -726622.312500 0.000000 
2845.527305 -1421.300106 -1137.379900 556654.000000 3.000000 3.000000 -727509.312500 0.000000 
3075.426719 -626.065044 -635.835083 9490445.000000 5.000000 3.000000 -726425.625000 0.000000 
3049.708945 -321.792339 -1027.402802 7136348.000000 6.000000 5.000000 -726785.875000 0.000000 
3044.414023 -714.495891 -803.302887 7724965.000000 2.000000 1.000000 -726687.875000 0.000000 
3042.828086 -937.764202 -949.288895 9295084.000000 1.000000 1.000000 -726450.875000 0.000000 
2827.291953 -1406.487697 -1000.152603 556699.000000 7.000000 5.000000 -727509.250000 0.000000 
3064.941367 -1121.131511 -973.023300 1359045.000000 1.000000 1.000000 -727315.375000 0.000000 
2825.413047 -1405.548107 -1000.663895 556699.000000 7.000000 7.000000 -727509.250000 0.000000 
2858.113242 -1421.836498 -1134.011600 556700.000000 3.000000 1.000000 -727509.250000 0.000000 
2857.503867 -1421.531307 -1134.205100 556700.000000 3.000000 2.000000 -727509.250000 0.000000 
3116.789023 -631.634014 -225.148499 8508435.000000 5.000000 4.000000 -726562.812500 0.000000 
2802.034141 -987.144878 -1043.026604 7140487.000000 7.000000 4.000000 -726785.125000 0.000000 
2831.113242 -1402.604900 -999.642197 556745.000000 7.000000 2.000000 -727509.250000 0.000000 
2801.982383 -836.734111 -1006.977402 7922168.000000 2.000000 1.000000 -726654.500000 0.000000 
2829.865195 -1401.978405 -999.982101 556745.000000 7.000000 4.000000 -727509.250000 0.000000 
3047.572227 -917.943401 -568.297974 10081177.000000 1.000000 1.000000 -726355.250000 0.000000 
3052.153281 -803.551311 -204.711426 7529600.000000 1.000000 1.000000 -726721.062500 0.000000 
2827.305625 -1400.693309 -1000.679199 556745.000000 7.000000 7.000000 -727509.250000 0.000000 
2869.555625 -1421.836193 -1131.003901 556746.000000 3.000000 1.000000 -727509.250000 0.000000 
2868.991172 -1421.552898 -1131.183100 556746.000000 3.000000 2.000000 -727509.250000 0.000000 
2868.421836 -1421.266902 -1131.363899 556746.000000 3.000000 3.000000 -727509.250000 0.000000 
2834.100547 -1398.307415 -999.360397 556791.000000 7.000000 1.000000 -727509.250000 0.000000 
3309.857383 -528.458110 -107.419067 7919128.000000 7.000000 7.000000 -726654.937500 0.000000 
3150.845664 -1115.537883 -527.111816 1561492.000000 1.000000 1.000000 -727265.250000 1.000000 
2831.811484 -1397.154491 -999.983994 556791.000000 7.000000 4.000000 -727509.250000 0.000000 
2831.192344 -1396.842510 -1000.152802 556791.000000 7.000000 5.000000 -727509.250000 0.000000 
2830.508750 -1396.497814 -1000.339294 556791.000000 7.000000 6.000000 -727509.250000 0.000000 
3048.937461 -815.203228 -443.022400 7334101.000000 2.000000 1.000000 -726754.187500 0.000000 
2880.922812 -1421.831600 -1128.018101 556792.000000 2.000000 1.000000 -727509.250000 0.000000 
2880.363242 -1421.550106 -1128.195601 556792.000000 2.000000 2.000000 -727509.250000 0.000000 
3050.618125 -802.591411 -319.936218 9491088.000000 1.000000 1.000000 -726425.562500 0.000000 
2835.023398 -1392.968792 -999.643097 556837.000000 7.000000 2.000000 -727509.250000 0.000000 
2834.457969 -1392.682994 -999.797302 556837.000000 7.000000 3.000000 -727509.250000 0.000000 
3134.537070 -1116.300518 -587.188599 1159123.000000 1.000000 1.000000 -727364.500000 1.000000 
2833.145469 -1392.019207 -1000.155304 556837.000000 7.000000 5.000000 -727509.250000 0.000000 
3076.847617 -622.440044 -999.095093 6938778.000000 4.000000 4.000000 -726807.750000 0.000000 
3042.940391 -724.280376 -974.194199 7138187.000000 7.000000 6.000000 -726785.500000 0.000000 
2892.228477 -1421.829998 -1125.049400 556838.000000 2.000000 1.000000 -727509.250000 0.000000 
3402.012656 -610.628643 -1097.537102 1567427.000000 7.000000 4.000000 -727263.812500 0.000000 
3130.536094 -321.470928 -1008.961197 7918810.000000 4.000000 3.000000 -726654.937500 0.000000 
2836.993125 -1388.156688 -999.642395 556883.000000 7.000000 2.000000 -727509.250000 0.000000 
2836.415977 -1387.863597 -999.800095 556883.000000 7.000000 3.000000 -727509.250000 0.000000 
3043.432578 -925.368206 -900.887497 10474524.000000 1.000000 1.000000 -726315.625000 0.000000 
2835.130820 -1387.211711 -1000.150696 556883.000000 7.000000 5.000000 -727509.250000 0.000000 
2834.442344 -1386.861797 -1000.338806 556883.000000 7.000000 6.000000 -727509.250000 0.000000 
2833.245078 -1386.254497 -1000.665405 556883.000000 7.000000 7.000000 -727509.250000 0.000000 
2903.461875 -1421.824993 -1122.101700 556884.000000 2.000000 1.000000 -727509.250000 0.000000 
2902.898398 -1421.539104 -1122.280899 556884.000000 2.000000 2.000000 -727509.250000 0.000000 
3390.444297 -636.921489 -1000.071701 1365852.000000 1.000000 1.000000 -727313.437500 1.000000 
3410.090781 -494.596782 -99.641968 10669608.000000 7.000000 7.000000 -726297.000000 0.000000 
2838.393516 -1383.053203 -999.799393 556929.000000 7.000000 3.000000 -727509.187500 0.000000 
3396.765586 -361.593364 -1000.178802 1166622.000000 1.000000 1.000000 -727362.125000 0.000000 
2837.104453 -1382.396404 -1000.151596 556929.000000 7.000000 5.000000 -727509.187500 0.000000 
2836.419883 -1382.048015 -1000.338501 556929.000000 7.000000 6.000000 -727509.187500 0.000000 
2835.230430 -1381.442089 -1000.663300 556929.000000 7.000000 7.000000 -727509.187500 0.000000 
2914.065391 -1421.532299 -1119.352400 556930.000000 2.000000 1.000000 -727509.187500 0.000000 
2913.562461 -1421.276195 -1119.512501 556930.000000 2.000000 2.000000 -727509.187500 0.000000 
2841.991172 -1379.069805 -999.357895 556975.000000 6.000000 1.000000 -727509.187500 0.000000 
2938.508750 -1048.722271 -1000.135498 1158021.000000 1.000000 1.000000 -727364.875000 0.000000 
2840.379844 -1378.246196 -999.798294 556975.000000 6.000000 3.000000 -727509.187500 0.000000 
2839.707969 -1377.902507 -999.982101 556975.000000 6.000000 4.000000 -727509.187500 0.000000 
2838.354453 -1377.210308 -1000.352203 556975.000000 6.000000 5.000000 -727509.187500 0.000000 
3046.374961 -663.118999 -569.240906 7137910.000000 7.000000 1.000000 -726785.562500 0.000000 
2801.926719 -1167.746807 -1001.182800 7923456.000000 2.000000 1.000000 -726654.250000 0.000000 
3091.221641 -321.679424 -1030.278801 7331758.000000 2.000000 2.000000 -726754.562500 0.000000 
2842.934531 -1373.729106 -999.643997 557021.000000 7.000000 2.000000 -727509.187500 0.000000 
3046.706992 -709.498516 -620.622009 7529234.000000 1.000000 1.000000 -726721.125000 0.000000 
2841.647422 -1373.068798 -999.996094 557021.000000 7.000000 4.000000 -727509.187500 0.000000 
2841.069297 -1372.772289 -1000.154205 557021.000000 7.000000 5.000000 -727509.187500 0.000000 
3050.712852 -912.470073 -314.685913 9491456.000000 1.000000 1.000000 -726425.500000 0.000000 
3160.453086 -1055.639690 -883.080811 1159861.000000 1.000000 1.000000 -727364.312500 0.000000 
2936.276328 -1421.555095 -1113.527901 557022.000000 1.000000 1.000000 -727509.187500 0.000000 
3401.980430 -988.795574 -1104.310398 1162715.000000 1.000000 1.000000 -727363.375000 0.000000 
3046.054648 -819.381511 -690.774811 8901875.000000 1.000000 1.000000 -726504.312500 0.000000 
3059.444297 -586.229351 -106.703247 9097373.000000 7.000000 7.000000 -726477.187500 0.000000 
3010.097617 -321.472393 -1025.220299 7527672.000000 2.000000 1.000000 -726721.375000 0.000000 
3069.777305 -621.475078 -952.542496 9293934.000000 5.000000 2.000000 -726451.000000 0.000000 
2842.403281 -1367.624187 -1000.336197 557067.000000 7.000000 6.000000 -727509.187500 0.000000 
2841.210898 -1367.010601 -1000.662399 557067.000000 7.000000 7.000000 -727509.187500 0.000000 
3048.114219 -1102.766094 -522.297180 10475029.000000 1.000000 1.000000 -726315.562500 0.000000 
2947.248008 -1421.546398 -1110.655399 557068.000000 2.000000 2.000000 -727509.187500 0.000000 
3076.847617 -625.304546 -714.779785 6739782.000000 6.000000 4.000000 -726831.750000 0.000000 
2846.944297 -1364.130413 -999.641495 557113.000000 7.000000 2.000000 -727509.187500 0.000000 
3047.706016 -706.387493 -553.148987 10277183.000000 1.000000 1.000000 -726334.750000 0.000000 
2845.696250 -1363.485088 -999.983597 557113.000000 7.000000 4.000000 -727509.187500 0.000000 
2845.081992 -1363.168010 -1000.151703 557113.000000 7.000000 5.000000 -727509.187500 0.000000 
2844.403281 -1362.816997 -1000.337799 557113.000000 7.000000 6.000000 -727509.187500 0.000000 
2843.216758 -1362.203807 -1000.662903 557113.000000 7.000000 7.000000 -727509.187500 0.000000 
3131.081992 -620.820415 -967.023804 8900956.000000 5.000000 1.000000 -726504.375000 0.000000 
2850.001914 -1359.875011 -999.354706 557159.000000 6.000000 1.000000 -727509.187500 0.000000 
2848.957969 -1359.333507 -999.641006 557159.000000 6.000000 2.000000 -727509.187500 0.000000 
2848.387656 -1359.038097 -999.797195 557159.000000 6.000000 3.000000 -727509.187500 0.000000 
2847.713828 -1358.688488 -999.981995 557159.000000 6.000000 4.000000 -727509.187500 0.000000 
2846.371055 -1357.991985 -1000.350204 557159.000000 6.000000 5.000000 -727509.187500 0.000000 
3141.188437 -630.440532 -287.115295 9686910.000000 5.000000 3.000000 -726400.375000 0.000000 
3095.695273 -630.533794 -309.264893 8116239.000000 3.000000 3.000000 -726622.562500 0.000000 
2968.614219 -1421.327999 -1105.087898 557160.000000 2.000000 2.000000 -727509.187500 0.000000 
3342.385703 -713.604473 -1000.225601 6738954.000000 1.000000 1.000000 -726831.937500 0.000000 
2850.969687 -1354.534801 -999.642899 557205.000000 7.000000 2.000000 -727509.125000 0.000000 
2850.400352 -1354.238689 -999.798996 557205.000000 7.000000 3.000000 -727509.125000 0.000000 
2849.725547 -1353.887401 -999.984100 557205.000000 7.000000 4.000000 -727509.125000 0.000000 
3035.817344 -598.431621 -108.752441 9097465.000000 7.000000 3.000000 -726477.187500 0.000000 
2848.432578 -1353.214489 -1000.338898 557205.000000 7.000000 6.000000 -727509.125000 0.000000 
3103.527305 -625.021831 -736.255707 6739644.000000 6.000000 4.000000 -726831.812500 0.000000 
2979.821250 -1421.538295 -1102.133801 557206.000000 2.000000 1.000000 -727509.125000 0.000000 
2979.415977 -1421.327205 -1102.263599 557206.000000 2.000000 2.000000 -727509.125000 0.000000 
3046.329062 -925.613811 -667.964996 9098617.000000 1.000000 1.000000 -726477.000000 0.000000 
2853.001914 -1349.745800 -999.641006 557251.000000 7.000000 2.000000 -727509.125000 0.000000 
2852.424766 -1349.444408 -999.799500 557251.000000 7.000000 3.000000 -727509.125000 0.000000 
3054.240195 -626.718486 -622.192383 6938915.000000 5.000000 4.000000 -726807.750000 0.000000 
2851.144492 -1348.775188 -1000.151199 557251.000000 7.000000 5.000000 -727509.125000 0.000000 
2850.467734 -1348.421794 -1000.337006 557251.000000 7.000000 6.000000 -727509.125000 0.000000 
3157.890586 -942.860698 -679.516998 1562734.000000 1.000000 1.000000 -727264.937500 0.000000 
2990.555625 -1421.535305 -1099.328701 557252.000000 1.000000 1.000000 -727509.125000 0.000000 
2856.063437 -1345.495098 -999.358307 557297.000000 7.000000 1.000000 -727509.125000 0.000000 
3320.066367 -741.761272 -108.008667 8900999.000000 7.000000 5.000000 -726504.375000 0.000000 
3379.946250 -1219.102489 -108.521240 10474936.000000 7.000000 4.000000 -726315.562500 0.000000 
3222.427695 -478.912456 -1000.180695 1164414.000000 1.000000 1.000000 -727362.812500 0.000000 
2802.262656 -917.340374 -1005.583496 7922490.000000 2.000000 2.000000 -726654.437500 0.000000 
3103.522422 -625.842998 -654.405090 9293887.000000 5.000000 3.000000 -726451.000000 0.000000 
3044.924766 -888.031719 -761.989105 8117437.000000 1.000000 1.000000 -726622.375000 0.000000 
3001.222617 -1421.529003 -1096.542801 557298.000000 2.000000 1.000000 -727509.125000 0.000000 
3048.230430 -705.464092 -510.515625 8312752.000000 1.000000 1.000000 -726591.437500 0.000000 
3045.929648 -986.084575 -703.959015 8706191.000000 1.000000 1.000000 -726532.875000 0.000000 
3422.798789 -571.915142 -107.257446 8900171.000000 7.000000 7.000000 -726504.500000 0.000000 
2856.500937 -1339.866588 -999.798904 557343.000000 7.000000 3.000000 -727509.125000 0.000000 
2855.835898 -1339.516185 -999.982101 557343.000000 7.000000 4.000000 -727509.125000 0.000000 
3310.729453 -539.729351 -107.486572 10669838.000000 7.000000 6.000000 -726297.000000 0.000000 
3347.748984 -694.127788 -108.007324 8900769.000000 7.000000 5.000000 -726504.437500 0.000000 
2853.351523 -1338.209392 -1000.665207 557343.000000 7.000000 7.000000 -727509.125000 0.000000 
3011.885703 -1421.551799 -1093.756302 557344.000000 1.000000 1.000000 -727509.125000 0.000000 
2860.147422 -1335.924785 -999.359100 557389.000000 6.000000 1.000000 -727509.125000 0.000000 
3157.926719 -874.858013 -681.175201 1161239.000000 1.000000 1.000000 -727363.812500 0.000000 
3158.218711 -913.512371 -706.230713 1562918.000000 3.000000 2.000000 -727264.875000 0.000000 
2857.884727 -1334.730205 -999.981903 557389.000000 6.000000 4.000000 -727509.125000 0.000000 
2856.547812 -1334.024211 -1000.349899 557389.000000 6.000000 5.000000 -727509.125000 0.000000 
2855.413047 -1333.425212 -1000.662201 557389.000000 6.000000 6.000000 -727509.125000 0.000000 
3022.431602 -1421.544307 -1091.005299 557390.000000 1.000000 1.000000 -727509.125000 0.000000 
2862.259727 -1331.175487 -999.343002 557435.000000 7.000000 1.000000 -727509.062500 0.000000 
2861.171836 -1330.598705 -999.642807 557435.000000 7.000000 2.000000 -727509.062500 0.000000 
2860.610312 -1330.301097 -999.797501 557435.000000 7.000000 3.000000 -727509.062500 0.000000 
2859.945273 -1329.948802 -999.980698 557435.000000 7.000000 4.000000 -727509.062500 0.000000 
2859.321250 -1329.618602 -1000.152405 557435.000000 7.000000 5.000000 -727509.062500 0.000000 
3401.980430 -1180.714092 -1066.217903 1362451.000000 2.000000 1.000000 -727314.375000 0.000000 
2857.470664 -1328.638011 -1000.662201 557435.000000 7.000000 7.000000 -727509.062500 0.000000 
2802.225547 -350.517437 -1034.777000 7333276.000000 2.000000 2.000000 -726754.312500 0.000000 
2864.268516 -1326.370006 -999.357407 557481.000000 7.000000 1.000000 -727509.062500 0.000000 
3317.826133 -701.703105 -1000.166306 1163909.000000 1.000000 1.000000 -727363.000000 0.000000 
2862.674766 -1325.522106 -999.796997 557481.000000 7.000000 3.000000 -727509.062500 0.000000 
2862.010703 -1325.168987 -999.980103 557481.000000 7.000000 4.000000 -727509.062500 0.000000 
2861.381797 -1324.834606 -1000.153397 557481.000000 7.000000 5.000000 -727509.062500 0.000000 
2860.714805 -1324.479991 -1000.337296 557481.000000 7.000000 6.000000 -727509.062500 0.000000 
3150.192344 -1120.480999 -920.938004 1359965.000000 1.000000 1.000000 -727315.125000 1.000000 
3045.184531 -974.794475 -740.907990 8313811.000000 1.000000 1.000000 -726591.375000 0.000000 
3043.003867 -1421.347301 -1085.663597 557482.000000 2.000000 2.000000 -727509.062500 0.000000 
3047.367148 -625.001445 -754.008087 8312431.000000 4.000000 3.000000 -726591.500000 0.000000 
3370.456016 -647.589885 -1000.072800 1365576.000000 1.000000 1.000000 -727313.562500 1.000000 
2802.314414 -1246.547313 -1005.924500 7728002.000000 3.000000 3.000000 -726687.312500 0.000000 
2864.070273 -1320.384899 -999.983093 557527.000000 7.000000 4.000000 -727509.062500 0.000000 
2863.456016 -1320.057292 -1000.152496 557527.000000 7.000000 5.000000 -727509.062500 0.000000 
2862.794883 -1319.704387 -1000.334900 557527.000000 7.000000 6.000000 -727509.062500 0.000000 
2861.602500 -1319.068309 -1000.663803 557527.000000 7.000000 7.000000 -727509.062500 0.000000 
3053.801719 -1421.567195 -1082.825302 557528.000000 1.000000 1.000000 -727509.062500 0.000000 
3401.914023 -814.498088 -1028.745201 1364979.000000 2.000000 2.000000 -727313.687500 0.000000 
2867.383750 -1316.271495 -999.641693 557573.000000 7.000000 2.000000 -727509.062500 0.000000 
3171.691367 -705.853313 -106.986938 7920324.000000 7.000000 7.000000 -726654.750000 0.000000 
2866.148398 -1315.609905 -999.982803 557573.000000 7.000000 4.000000 -727509.062500 0.000000 
3044.106406 -809.976299 -830.503204 7334103.000000 2.000000 1.000000 -726754.187500 0.000000 
3161.709922 -542.239238 -1000.046799 6937950.000000 1.000000 1.000000 -726807.875000 0.000000 
3081.290000 -1421.405300 -1089.631500 1356471.000000 1.000000 1.000000 -727316.187500 0.000000 
3158.392539 -859.591899 -755.753387 1563240.000000 3.000000 3.000000 -727264.812500 0.000000 
2870.499961 -1312.055187 -999.356400 557619.000000 7.000000 1.000000 -727509.062500 0.000000 
2869.467734 -1311.500713 -999.641602 557619.000000 7.000000 2.000000 -727509.062500 0.000000 
2868.902305 -1311.196788 -999.797806 557619.000000 7.000000 3.000000 -727509.062500 0.000000 
3373.909141 -320.640239 -1004.034195 7918028.000000 4.000000 1.000000 -726655.062500 0.000000 
3042.758750 -1120.221782 -907.088196 10278426.000000 1.000000 1.000000 -726334.562500 0.000000 
2866.956016 -1310.150707 -1000.335693 557619.000000 7.000000 6.000000 -727509.062500 0.000000 
3001.550742 -1244.467601 -107.628540 8903483.000000 7.000000 6.000000 -726504.062500 0.000000 
3124.590781 -1150.912090 -106.840454 7726388.000000 7.000000 7.000000 -726687.687500 0.000000 
2872.584922 -1307.285289 -999.358002 557665.000000 7.000000 1.000000 -727509.000000 0.000000 
3401.987266 -1215.015087 -1034.552696 1362175.000000 1.000000 1.000000 -727314.500000 0.000000 
3389.906211 -321.478008 -1018.041306 7526154.000000 2.000000 1.000000 -726721.625000 0.000000 
3389.307578 -1063.162822 -1000.064194 1363186.000000 1.000000 1.000000 -727314.187500 1.000000 
3032.177695 -1211.945690 -106.702393 8903299.000000 7.000000 7.000000 -726504.125000 0.000000 
3070.259727 -321.068828 -1002.871796 8115000.000000 4.000000 2.000000 -726622.687500 0.000000 
3076.964805 -630.060039 -260.103577 9883606.000000 5.000000 2.000000 -726377.625000 0.000000 
3084.586875 -1421.552806 -1074.815598 557666.000000 1.000000 1.000000 -727509.000000 0.000000 
3044.830039 -1083.631023 -770.879608 7922259.000000 2.000000 1.000000 -726654.500000 0.000000 
3370.018516 -1275.930095 -1000.028702 1361255.000000 1.000000 1.000000 -727314.750000 2.000000 
3433.940391 -540.359600 -108.008423 8900033.000000 7.000000 5.000000 -726504.562500 0.000000 
3158.972617 -868.850200 -764.735901 1361941.000000 1.000000 1.000000 -727314.562500 0.000000 
2803.198203 -620.857891 -1108.086899 7139016.000000 7.000000 7.000000 -726785.375000 0.000000 
2871.144492 -1300.607006 -1000.337006 557711.000000 7.000000 6.000000 -727509.000000 0.000000 
2801.984336 -975.199504 -1022.737999 7335898.000000 2.000000 1.000000 -726753.875000 0.000000 
3013.829062 -321.097881 -1018.357407 7723356.000000 3.000000 1.000000 -726688.125000 0.000000 
2803.201133 -578.001079 -1070.014603 7138832.000000 7.000000 7.000000 -726785.437500 0.000000 
2876.784141 -1297.758800 -999.358597 557757.000000 7.000000 1.000000 -727509.000000 0.000000 
3177.202109 -699.183208 -106.987305 7920278.000000 7.000000 7.000000 -726654.750000 0.000000 
2875.197227 -1296.897014 -999.798203 557757.000000 7.000000 3.000000 -727509.000000 0.000000 
2874.529258 -1296.534099 -999.983307 557757.000000 7.000000 4.000000 -727509.000000 0.000000 
3102.159141 -917.438213 -121.172729 8902103.000000 1.000000 1.000000 -726504.312500 0.000000 
3401.977500 -1192.245189 -1055.553001 1362359.000000 2.000000 1.000000 -727314.437500 0.000000 
2801.391562 -1098.650798 -1138.307000 7140901.000000 7.000000 2.000000 -726785.062500 0.000000 
3104.836875 -1421.546901 -1069.553497 557758.000000 2.000000 1.000000 -727509.000000 0.000000 
3104.477500 -1421.351604 -1069.669601 557758.000000 2.000000 2.000000 -727509.000000 0.000000 
2981.677695 -907.320903 -109.023315 7921796.000000 7.000000 2.000000 -726654.562500 0.000000 
2943.314414 -965.913677 -106.987915 7922164.000000 7.000000 7.000000 -726654.500000 0.000000 
2877.318320 -1292.140392 -999.796005 557803.000000 7.000000 3.000000 -727509.000000 0.000000 
3104.744102 -626.477153 -654.318512 9293887.000000 5.000000 4.000000 -726451.000000 0.000000 
3046.066367 -733.058513 -698.192505 6939467.000000 6.000000 4.000000 -726807.625000 0.000000 
2801.690391 -998.939373 -1052.900902 7140533.000000 7.000000 3.000000 -726785.125000 0.000000 
2874.194297 -1290.437511 -1000.662201 557803.000000 7.000000 7.000000 -727509.000000 0.000000 
3114.877891 -1421.543102 -1066.946602 557804.000000 2.000000 1.000000 -727509.000000 0.000000 
2801.397422 -640.207073 -1124.113001 7139108.000000 7.000000 2.000000 -726785.375000 0.000000 
3043.185508 -693.517681 -919.801697 10080488.000000 1.000000 1.000000 -726355.312500 0.000000 
2879.998008 -1287.687908 -999.641006 557849.000000 7.000000 2.000000 -727508.937500 0.000000 
2879.432578 -1287.378795 -999.797806 557849.000000 7.000000 3.000000 -727508.937500 0.000000 
3000.398398 -1231.685894 -109.790039 10672138.000000 7.000000 2.000000 -726296.750000 0.000000 
2878.157187 -1286.680889 -1000.151794 557849.000000 7.000000 5.000000 -727508.937500 0.000000 
2877.501914 -1286.322704 -1000.333603 557849.000000 7.000000 6.000000 -727508.937500 0.000000 
2876.317344 -1285.674907 -1000.662201 557849.000000 7.000000 7.000000 -727508.937500 0.000000 
3103.768516 -1120.819377 -949.085098 1359459.000000 1.000000 1.000000 -727315.250000 1.000000 
2883.198203 -1283.522197 -999.343094 557895.000000 7.000000 1.000000 -727508.937500 0.000000 
3372.452109 -322.070537 -1001.842102 6935788.000000 4.000000 3.000000 -726808.375000 0.000000 
3043.750937 -1120.338176 -910.864105 1158297.000000 3.000000 1.000000 -727364.750000 1.000000 
2802.248984 -676.297527 -1022.623100 7530156.000000 2.000000 2.000000 -726721.000000 0.000000 
3294.021445 -428.540752 -1000.174606 1165334.000000 1.000000 1.000000 -727362.562500 0.000000 
2879.627891 -1281.562786 -1000.334396 557895.000000 7.000000 6.000000 -727508.937500 0.000000 
2878.450156 -1280.916393 -1000.661499 557895.000000 7.000000 7.000000 -727508.937500 0.000000 
3115.019492 -587.269146 -999.823807 6938410.000000 1.000000 1.000000 -726807.812500 0.000000 
2885.288047 -1278.748394 -999.355103 557941.000000 7.000000 1.000000 -727508.937500 0.000000 
2884.256797 -1278.180492 -999.641693 557941.000000 7.000000 2.000000 -727508.937500 0.000000 
2883.698203 -1277.872814 -999.796906 557941.000000 7.000000 3.000000 -727508.937500 0.000000 
3242.150352 -607.227153 -108.299316 7919680.000000 7.000000 4.000000 -726654.812500 0.000000 
2882.420859 -1277.169109 -1000.151993 557941.000000 7.000000 5.000000 -727508.937500 0.000000 
2800.920859 -953.383525 -1082.103798 6941768.000000 7.000000 1.000000 -726807.312500 0.000000 
2880.587852 -1276.159587 -1000.661407 557941.000000 7.000000 7.000000 -727508.937500 0.000000 
3102.160117 -711.446208 -163.947815 7724732.000000 1.000000 1.000000 -726687.937500 0.000000 
3144.373008 -1421.364299 -1059.317001 557942.000000 2.000000 2.000000 -727508.937500 0.000000 
2887.425742 -1273.999309 -999.356003 557987.000000 7.000000 1.000000 -727508.937500 0.000000 
2886.401328 -1273.433208 -999.640900 557987.000000 7.000000 2.000000 -727508.937500 0.000000 
2885.841758 -1273.123912 -999.796600 557987.000000 7.000000 3.000000 -727508.937500 0.000000 
2885.185508 -1272.761302 -999.979004 557987.000000 7.000000 4.000000 -727508.937500 0.000000 
3157.922812 -935.486980 -686.244690 1562780.000000 3.000000 2.000000 -727264.937500 0.000000 
2883.900352 -1272.050914 -1000.336502 557987.000000 7.000000 6.000000 -727508.937500 0.000000 
3042.066367 -756.305217 -999.553101 7138325.000000 3.000000 3.000000 -726785.500000 0.000000 
3154.549766 -1421.553401 -1056.657997 557988.000000 2.000000 1.000000 -727508.937500 0.000000 
3298.040000 -321.733745 -1026.541298 7330838.000000 2.000000 2.000000 -726754.750000 0.000000 
2889.569297 -1269.252208 -999.357407 558033.000000 7.000000 1.000000 -727508.875000 0.000000 
2960.449180 -368.634258 -1000.227493 7137038.000000 1.000000 1.000000 -726785.750000 0.000000 
2887.994102 -1268.378704 -999.795700 558033.000000 7.000000 3.000000 -727508.875000 0.000000 
2887.331016 -1268.011211 -999.980194 558033.000000 7.000000 4.000000 -727508.875000 0.000000 
2886.714805 -1267.669506 -1000.151703 558033.000000 7.000000 5.000000 -727508.875000 0.000000 
3222.090781 -1397.194194 -1000.026794 1358311.000000 1.000000 1.000000 -727315.625000 2.000000 
2884.833945 -1266.626293 -1000.675293 558033.000000 7.000000 7.000000 -727508.875000 0.000000 
3164.330039 -1421.553005 -1054.125504 558034.000000 2.000000 1.000000 -727508.875000 0.000000 
3100.571250 -321.792827 -1016.668198 7723034.000000 2.000000 2.000000 -726688.187500 0.000000 
3090.006797 -621.809429 -975.642593 8704720.000000 5.000000 3.000000 -726533.000000 0.000000 
2802.159141 -374.424541 -1014.632004 7920190.000000 1.000000 1.000000 -726654.750000 0.000000 
3401.532187 -585.305767 -1124.497900 1567519.000000 7.000000 7.000000 -727263.812500 0.000000 
2889.482383 -1263.263103 -999.981796 558079.000000 7.000000 4.000000 -727508.875000 0.000000 
3050.976523 -834.394023 -296.590881 8117205.000000 1.000000 1.000000 -726622.437500 0.000000 
2888.208945 -1262.554088 -1000.336700 558079.000000 7.000000 6.000000 -727508.875000 0.000000 
2887.036094 -1261.901500 -1000.663406 558079.000000 7.000000 7.000000 -727508.875000 0.000000 
3264.144492 -934.563518 -1000.011902 1362633.000000 1.000000 1.000000 -727314.375000 1.000000 
3173.752891 -1421.382595 -1051.707100 558080.000000 2.000000 2.000000 -727508.875000 0.000000 
3156.127891 -987.144878 -536.404724 1361066.000000 1.000000 1.000000 -727314.812500 0.000000 
3205.897422 -644.628582 -109.171753 7919956.000000 7.000000 1.000000 -726654.750000 0.000000 
2892.311484 -1258.892009 -999.796494 558125.000000 7.000000 3.000000 -727508.875000 0.000000 
2891.645469 -1258.520397 -999.982101 558125.000000 7.000000 4.000000 -727508.875000 0.000000 
2891.036094 -1258.179912 -1000.152100 558125.000000 7.000000 5.000000 -727508.875000 0.000000 
2890.375937 -1257.811199 -1000.336197 558125.000000 7.000000 6.000000 -727508.875000 0.000000 
3102.169883 -1033.913677 -112.405273 8902517.000000 1.000000 1.000000 -726504.250000 0.000000 
3069.704062 -621.266948 -976.082703 8704766.000000 5.000000 2.000000 -726533.000000 0.000000 
3159.460898 -919.802898 -803.344788 1160918.000000 1.000000 1.000000 -727363.937500 0.000000 
3047.952109 -973.089214 -522.413574 8117758.000000 1.000000 1.000000 -726622.375000 0.000000 
2894.488242 -1254.156993 -999.794907 558171.000000 6.000000 3.000000 -727508.875000 0.000000 
3045.326133 -696.847515 -745.173004 6740334.000000 5.000000 3.000000 -726831.687500 0.000000 
3042.571250 -669.462871 -929.781799 7137957.000000 7.000000 3.000000 -726785.562500 0.000000 
2925.014609 -1421.368404 -1032.377800 1354860.000000 1.000000 1.000000 -727316.812500 0.000000 
3402.036094 -1218.287303 -1113.954498 1160830.000000 1.000000 1.000000 -727363.937500 0.000000 
3193.043906 -1421.374401 -1046.719803 558172.000000 2.000000 2.000000 -727508.875000 0.000000 
2898.237266 -1250.305095 -999.356094 558217.000000 7.000000 1.000000 -727508.812500 0.000000 
2897.223594 -1249.735088 -999.639206 558217.000000 7.000000 2.000000 -727508.812500 0.000000 
2896.660117 -1249.418102 -999.796707 558217.000000 7.000000 3.000000 -727508.812500 0.000000 
2895.999961 -1249.047100 -999.980896 558217.000000 7.000000 4.000000 -727508.812500 0.000000 
3051.867148 -800.402019 -222.231873 10080808.000000 1.000000 1.000000 -726355.250000 0.000000 
2894.724570 -1248.330089 -1000.337006 558217.000000 7.000000 6.000000 -727508.812500 0.000000 
3138.902305 -629.410015 -254.448425 9883514.000000 5.000000 1.000000 -726377.625000 0.000000 
3202.910117 -1421.537395 -1044.151299 558218.000000 2.000000 1.000000 -727508.812500 0.000000 
3045.985312 -719.246501 -694.082611 8901507.000000 1.000000 1.000000 -726504.312500 0.000000 
2801.970664 -665.132122 -1022.833504 7530110.000000 2.000000 1.000000 -726721.000000 0.000000 
2899.403281 -1245.000286 -999.640793 558263.000000 7.000000 2.000000 -727508.812500 0.000000 
3102.156211 -1046.382610 -141.229492 10474798.000000 1.000000 1.000000 -726315.562500 0.000000 
3193.619102 -1205.941204 -1000.159103 1359736.000000 1.000000 1.000000 -727315.187500 1.000000 
2897.576133 -1243.969493 -1000.151398 558263.000000 7.000000 5.000000 -727508.812500 0.000000 
2800.897422 -1010.143291 -1062.016197 7140579.000000 7.000000 1.000000 -726785.125000 0.000000 
2895.756797 -1242.943309 -1000.659698 558263.000000 7.000000 7.000000 -727508.812500 0.000000 
3317.708945 -523.543682 -106.840942 7919082.000000 7.000000 7.000000 -726654.937500 0.000000 
3083.791953 -625.925029 -489.881226 10867087.000000 7.000000 1.000000 -726275.562500 0.000000 
3048.575156 -877.008220 -486.236023 10867823.000000 1.000000 1.000000 -726275.375000 0.000000 
2901.593711 -1240.271007 -999.641006 558309.000000 7.000000 2.000000 -727508.812500 0.000000 
3210.378867 -499.018779 -999.932907 1364701.000000 1.000000 1.000000 -727313.750000 0.000000 
2900.378867 -1239.583110 -999.980896 558309.000000 7.000000 4.000000 -727508.812500 0.000000 
3029.762656 -620.242046 -108.006836 9097557.000000 7.000000 5.000000 -726477.187500 0.000000 
2800.941367 -532.945781 -1028.613098 7138648.000000 7.000000 1.000000 -726785.437500 0.000000 
2897.949180 -1238.207714 -1000.660507 558309.000000 7.000000 7.000000 -727508.812500 0.000000 
3221.948203 -1421.558193 -1039.234398 558310.000000 1.000000 1.000000 -727508.812500 0.000000 
2904.810508 -1236.122905 -999.356201 558355.000000 6.000000 1.000000 -727508.812500 0.000000 
3043.532187 -954.615093 -892.285095 10671312.000000 1.000000 1.000000 -726296.875000 0.000000 
2903.238242 -1235.229686 -999.796402 558355.000000 6.000000 3.000000 -727508.812500 0.000000 
2902.573203 -1234.852001 -999.982605 558355.000000 6.000000 4.000000 -727508.812500 0.000000 
3299.607383 -449.570293 -1000.125397 1365851.000000 1.000000 1.000000 -727313.437500 0.000000 
3281.479453 -545.174541 -110.061279 10669884.000000 7.000000 1.000000 -726297.000000 0.000000 
2893.794883 -321.473979 -1006.470901 8115552.000000 4.000000 3.000000 -726622.625000 0.000000 
2907.010703 -1231.398113 -999.357803 558401.000000 7.000000 1.000000 -727508.750000 0.000000 
2906.001914 -1230.823314 -999.640396 558401.000000 7.000000 2.000000 -727508.750000 0.000000 
3071.832969 -625.806255 -734.082489 8508529.000000 5.000000 5.000000 -726562.812500 0.000000 
3325.443320 -496.950054 -108.607300 7918944.000000 7.000000 3.000000 -726654.937500 0.000000 
2801.990195 -959.421978 -1017.322495 7531306.000000 2.000000 1.000000 -726720.812500 0.000000 
3402.707969 -586.066387 -108.750854 8900263.000000 7.000000 3.000000 -726504.500000 0.000000 
2902.358359 -1228.746410 -1000.661301 558401.000000 7.000000 7.000000 -727508.750000 0.000000 
3240.740195 -1421.551693 -1034.389999 558402.000000 2.000000 1.000000 -727508.750000 0.000000 
3043.519492 -590.094951 -108.380127 9097419.000000 7.000000 4.000000 -726477.187500 0.000000 
3401.882773 -625.840801 -1004.095200 1366036.000000 3.000000 2.000000 -727313.437500 0.000000 
2908.219687 -1226.105602 -999.639206 558447.000000 7.000000 2.000000 -727508.750000 0.000000 
2907.657187 -1225.784008 -999.796906 558447.000000 7.000000 3.000000 -727508.750000 0.000000 
3042.351523 -629.781841 -984.137100 8508622.000000 1.000000 1.000000 -726562.812500 0.000000 
3289.486289 -596.592388 -107.484741 10670022.000000 7.000000 6.000000 -726297.000000 0.000000 
2905.739219 -1224.686992 -1000.334793 558447.000000 7.000000 6.000000 -727508.750000 0.000000 
2904.579062 -1224.023601 -1000.660004 558447.000000 7.000000 7.000000 -727508.750000 0.000000 
3249.824180 -1421.412105 -1032.066498 558448.000000 1.000000 1.000000 -727508.750000 0.000000 
2911.498008 -1221.995800 -999.342194 558493.000000 7.000000 1.000000 -727508.750000 0.000000 
3160.907187 -848.894084 -958.449005 1563333.000000 4.000000 4.000000 -727264.812500 0.000000 
2909.935508 -1221.098888 -999.780807 558493.000000 7.000000 3.000000 -727508.750000 0.000000 
3132.004844 -321.431255 -1022.950401 7527166.000000 2.000000 1.000000 -726721.437500 0.000000 
2908.610312 -1220.338604 -1000.152603 558493.000000 7.000000 5.000000 -727508.750000 0.000000 
3158.863242 -712.657024 -754.171509 1162389.000000 1.000000 1.000000 -727363.500000 0.000000 
3100.464805 -628.064312 -510.808105 8312292.000000 4.000000 4.000000 -726591.500000 0.000000 
3259.389609 -1421.574993 -1029.584099 558494.000000 1.000000 1.000000 -727508.750000 0.000000 
3091.240195 -528.184062 -106.703125 9097097.000000 7.000000 7.000000 -726477.187500 0.000000 
3156.739219 -790.322124 -578.148926 1161836.000000 1.000000 1.000000 -727363.687500 0.000000 
2912.109336 -1216.352794 -999.796097 558539.000000 7.000000 3.000000 -727508.750000 0.000000 
3401.397422 -515.424785 -1092.231800 1366588.000000 4.000000 4.000000 -727313.250000 0.000000 
2910.846641 -1215.625408 -1000.150803 558539.000000 7.000000 5.000000 -727508.750000 0.000000 
2910.191367 -1215.247997 -1000.335007 558539.000000 7.000000 6.000000 -727508.750000 0.000000 
2908.984336 -1214.553112 -1000.673904 558539.000000 7.000000 7.000000 -727508.750000 0.000000 
3268.620078 -1421.573802 -1027.209099 558540.000000 1.000000 1.000000 -727508.750000 0.000000 
2801.975547 -879.687297 -1024.631203 7335530.000000 2.000000 1.000000 -726753.937500 0.000000 
2914.899375 -1211.960887 -999.640305 558585.000000 7.000000 2.000000 -727508.687500 0.000000 
2914.341758 -1211.638988 -999.796906 558585.000000 7.000000 3.000000 -727508.687500 0.000000 
3048.577109 -860.363079 -486.625122 10867777.000000 1.000000 1.000000 -726275.375000 0.000000 
2913.088828 -1210.914989 -1000.149200 558585.000000 7.000000 5.000000 -727508.687500 0.000000 
3043.613242 -792.248088 -885.450104 10867594.000000 1.000000 1.000000 -726275.437500 0.000000 
2911.270469 -1209.863994 -1000.660507 558585.000000 7.000000 7.000000 -727508.687500 0.000000 
3277.489219 -1421.391094 -1024.950600 558586.000000 1.000000 1.000000 -727508.687500 0.000000 
3401.889609 -1065.215496 -1055.733299 1162117.000000 1.000000 1.000000 -727363.562500 0.000000 
3242.580039 -618.541606 -106.987671 7919726.000000 7.000000 7.000000 -726654.812500 0.000000 
2876.674766 -321.481548 -999.425797 8311650.000000 3.000000 2.000000 -726591.625000 0.000000 
2915.927695 -1206.548809 -999.981903 558631.000000 7.000000 4.000000 -727508.687500 0.000000 
2915.279258 -1206.173198 -1000.164093 558631.000000 7.000000 5.000000 -727508.687500 0.000000 
3042.715781 -910.507000 -957.433395 9098572.000000 1.000000 1.000000 -726477.000000 0.000000 
3401.863242 -464.783550 -1103.845501 1166117.000000 2.000000 2.000000 -727362.312500 0.000000 
2801.622031 -1085.664775 -1020.533295 7336312.000000 3.000000 1.000000 -726753.750000 0.000000 
3182.394492 -640.198589 -1000.037201 7137129.000000 1.000000 1.000000 -726785.687500 0.000000 
2802.265586 -1034.870586 -1003.532196 7922950.000000 2.000000 2.000000 -726654.375000 0.000000 
2802.003867 -1360.779399 -1014.933502 7337278.000000 4.000000 3.000000 -726753.562500 0.000000 
3186.037070 -1095.055400 -999.967407 1159770.000000 1.000000 1.000000 -727364.312500 1.000000 
2917.528281 -1201.464214 -1000.164597 558677.000000 7.000000 5.000000 -727508.687500 0.000000 
3042.513633 -748.711101 -974.935196 8705318.000000 1.000000 1.000000 -726532.937500 0.000000 
2915.764609 -1200.438091 -1000.661301 558677.000000 7.000000 7.000000 -727508.687500 0.000000 
3296.015586 -1421.562206 -1020.169601 558678.000000 1.000000 1.000000 -727508.625000 0.000000 
3296.200156 -1421.606594 -1149.423400 558679.000000 1.000000 1.000000 -727508.625000 0.000000 
2922.655234 -1198.433086 -999.356293 558723.000000 7.000000 1.000000 -727508.625000 0.000000 
3157.159141 -1034.326213 -596.740479 1562136.000000 2.000000 1.000000 -727265.062500 0.000000 
3160.330039 -932.815593 -875.404602 1562827.000000 3.000000 2.000000 -727264.875000 0.000000 
2920.439414 -1197.140300 -999.980606 558723.000000 7.000000 4.000000 -727508.625000 0.000000 
2919.794883 -1196.763988 -1000.162292 558723.000000 7.000000 5.000000 -727508.625000 0.000000 
2919.183555 -1196.407207 -1000.334595 558723.000000 7.000000 6.000000 -727508.625000 0.000000 
2917.973594 -1195.700908 -1000.675598 558723.000000 7.000000 7.000000 -727508.625000 0.000000 
3305.059531 -1421.561199 -1017.848007 558724.000000 1.000000 1.000000 -727508.625000 0.000000 
3305.186484 -1421.572704 -1146.798400 558725.000000 2.000000 1.000000 -727508.625000 0.000000 
3015.572227 -1200.666912 -109.495117 8903299.000000 7.000000 1.000000 -726504.125000 0.000000 
2924.910117 -1193.730693 -999.358505 558769.000000 7.000000 1.000000 -727508.625000 0.000000 
2923.909141 -1193.145000 -999.640594 558769.000000 7.000000 2.000000 -727508.625000 0.000000 
2923.359336 -1192.822887 -999.795807 558769.000000 7.000000 3.000000 -727508.625000 0.000000 
3041.165977 -588.808452 -108.753174 9097419.000000 7.000000 3.000000 -726477.187500 0.000000 
2922.104453 -1192.087993 -1000.149796 558769.000000 7.000000 5.000000 -727508.625000 0.000000 
2921.400352 -1191.675304 -1000.348495 558769.000000 7.000000 6.000000 -727508.625000 0.000000 
3160.408164 -1066.833171 -877.472595 1159769.000000 1.000000 1.000000 -727364.312500 0.000000 
3046.979453 -766.390483 -613.231018 9687509.000000 1.000000 1.000000 -726400.375000 0.000000 
3046.452109 -739.773418 -654.174011 9294393.000000 1.000000 1.000000 -726450.937500 0.000000 
3106.023398 -627.140850 -654.227905 9293887.000000 5.000000 5.000000 -726451.000000 0.000000 
2802.349570 -1062.082500 -1107.401100 7140763.000000 7.000000 5.000000 -726785.125000 0.000000 
3049.364219 -646.794170 -425.985413 7528957.000000 1.000000 1.000000 -726721.125000 0.000000 
2925.630820 -1188.125804 -999.795807 558815.000000 7.000000 3.000000 -727508.562500 0.000000 
2924.983359 -1187.745708 -999.978394 558815.000000 7.000000 4.000000 -727508.562500 0.000000 
3050.754844 -1051.764507 -307.875427 9491916.000000 1.000000 1.000000 -726425.437500 0.000000 
3166.165000 -712.510479 -106.987915 7920370.000000 6.000000 6.000000 -726654.750000 0.000000 
3045.069297 -952.815410 -776.446014 7921753.000000 2.000000 2.000000 -726654.562500 0.000000 
2832.403281 -835.709575 -1000.271103 6941078.000000 2.000000 2.000000 -726807.437500 0.000000 
3322.833945 -1421.393001 -1141.664900 558817.000000 1.000000 1.000000 -727508.562500 0.000000 
3047.874961 -955.183696 -550.952515 7921752.000000 2.000000 2.000000 -726654.562500 0.000000 
2802.144492 -484.024761 -1005.845993 8116564.000000 1.000000 1.000000 -726622.500000 0.000000 
2927.911094 -1183.432903 -999.795197 558861.000000 7.000000 3.000000 -727508.562500 0.000000 
3154.014609 -1008.694011 -363.300476 1160179.000000 1.000000 1.000000 -727364.187500 1.000000 
3188.518516 -793.656780 -1000.056503 1563977.000000 1.000000 1.000000 -727264.625000 1.000000 
2926.002891 -1182.307811 -1000.334396 558861.000000 7.000000 6.000000 -727508.562500 0.000000 
2935.629844 -970.603923 -107.418457 7922210.000000 7.000000 7.000000 -726654.500000 0.000000 
3331.952109 -1421.577999 -1010.950607 558862.000000 2.000000 1.000000 -727508.562500 0.000000 
2801.998984 -1388.164501 -1014.370193 7337370.000000 4.000000 3.000000 -726753.500000 0.000000 
3331.788047 -1421.418804 -1139.045900 558863.000000 1.000000 1.000000 -727508.562500 0.000000 
2931.751914 -1179.662090 -999.355301 558907.000000 7.000000 1.000000 -727508.562500 0.000000 
3049.884727 -862.219097 -380.382080 9098386.000000 1.000000 1.000000 -726477.000000 0.000000 
2930.191367 -1178.738689 -999.796707 558907.000000 7.000000 3.000000 -727508.562500 0.000000 
2801.622031 -1345.479106 -1009.838898 7532732.000000 3.000000 1.000000 -726720.500000 0.000000 
3105.024375 -631.115459 -267.840820 8312291.000000 4.000000 4.000000 -726591.500000 0.000000 
2928.290000 -1177.614086 -1000.334396 558907.000000 7.000000 6.000000 -727508.562500 0.000000 
2927.138633 -1176.932598 -1000.660095 558907.000000 7.000000 7.000000 -727508.562500 0.000000 
3048.238242 -633.236431 -548.187012 7137772.000000 7.000000 6.000000 -726785.625000 0.000000 
3340.515586 -1421.399700 -1008.779694 558908.000000 2.000000 2.000000 -727508.562500 0.000000 
3340.644492 -1421.413707 -1136.461400 558909.000000 1.000000 1.000000 -727508.562500 0.000000 
3267.885703 -653.322979 -107.485474 10670206.000000 7.000000 6.000000 -726296.937500 0.000000 
3102.201133 -984.750408 -130.523926 7725836.000000 2.000000 2.000000 -726687.750000 0.000000 
2801.594687 -1387.019786 -1003.278397 7728508.000000 3.000000 1.000000 -726687.187500 0.000000 
2931.833945 -1173.664806 -999.980804 558953.000000 7.000000 4.000000 -727508.500000 0.000000 
3401.934531 -1046.330730 -1007.710098 1363462.000000 2.000000 2.000000 -727314.125000 0.000000 
2930.572227 -1172.916210 -1000.337708 558953.000000 7.000000 6.000000 -727508.500000 0.000000 
2929.432578 -1172.239513 -1000.660507 558953.000000 7.000000 7.000000 -727508.500000 0.000000 
3349.625937 -1421.571102 -1006.426605 558954.000000 2.000000 1.000000 -727508.500000 0.000000 
3241.889609 -768.612590 -1000.057800 1564759.000000 1.000000 1.000000 -727264.437500 1.000000 
3405.808555 -493.070537 -100.100586 10669608.000000 7.000000 3.000000 -726297.000000 0.000000 
3401.909141 -414.049663 -1134.126700 1166393.000000 1.000000 1.000000 -727362.187500 0.000000 
3073.842734 -1118.325908 -751.084991 1158572.000000 1.000000 1.000000 -727364.687500 1.000000 
2935.334922 -1169.694103 -999.640503 558999.000000 7.000000 2.000000 -727508.500000 0.000000 
2934.778281 -1169.362590 -999.798203 558999.000000 7.000000 3.000000 -727508.500000 0.000000 
2934.131797 -1168.977703 -999.981293 558999.000000 7.000000 4.000000 -727508.500000 0.000000 
3137.087852 -1254.124706 -1000.024094 1358678.000000 1.000000 1.000000 -727315.500000 2.000000 
3159.694297 -1028.768230 -815.816010 1360792.000000 1.000000 1.000000 -727314.875000 0.000000 
3400.472617 -631.648052 -1000.077194 1365990.000000 1.000000 1.000000 -727313.437500 1.000000 
3358.096641 -1421.388805 -1004.282700 559000.000000 1.000000 1.000000 -727508.500000 0.000000 
3102.209922 -961.282085 -133.439819 7725744.000000 1.000000 1.000000 -726687.750000 0.000000 
3050.384727 -621.272441 -976.494003 8704812.000000 5.000000 2.000000 -726533.000000 0.000000 
3452.747031 -525.415752 -106.702271 8899941.000000 7.000000 7.000000 -726504.562500 0.000000 
2937.647422 -1165.016185 -999.639008 559045.000000 7.000000 2.000000 -727508.500000 0.000000 
3044.684531 -859.551189 -780.380707 7921385.000000 1.000000 1.000000 -726654.625000 0.000000 
2936.444297 -1164.297405 -999.980103 559045.000000 7.000000 4.000000 -727508.500000 0.000000 
3401.883750 -683.379192 -1136.039100 1164830.000000 1.000000 1.000000 -727362.687500 0.000000 
2935.194297 -1163.550792 -1000.334396 559045.000000 7.000000 6.000000 -727508.500000 0.000000 
3147.061484 -591.014873 -154.950684 10473418.000000 7.000000 2.000000 -726315.687500 0.000000 
3366.828086 -1421.386592 -1002.051193 559046.000000 1.000000 1.000000 -727508.500000 0.000000 
3367.248984 -1421.576198 -1128.681900 559047.000000 1.000000 1.000000 -727508.500000 0.000000 
2839.884727 -1030.150798 -1000.119400 1357572.000000 1.000000 1.000000 -727315.875000 1.000000 
3045.018516 -941.047222 -776.945404 7921707.000000 2.000000 2.000000 -726654.562500 0.000000 
2939.410117 -1160.008190 -999.795197 559091.000000 7.000000 3.000000 -727508.437500 0.000000 
2802.147422 -394.839702 -1014.305801 7920282.000000 1.000000 1.000000 -726654.750000 0.000000 
3156.746055 -770.576091 -586.330811 1161974.000000 1.000000 1.000000 -727363.625000 0.000000 
3044.922812 -853.019695 -763.387909 8117299.000000 2.000000 1.000000 -726622.375000 0.000000 
2936.361289 -1158.180797 -1000.660294 559091.000000 7.000000 7.000000 -727508.437500 0.000000 
3375.025352 -1421.090496 -999.994202 559092.000000 2.000000 1.000000 -727508.437500 0.000000 
2808.989219 -321.852275 -1008.181198 8115828.000000 4.000000 4.000000 -726622.562500 0.000000 
3375.638633 -1421.396404 -1126.265499 559093.000000 1.000000 1.000000 -727508.437500 0.000000 
3050.636680 -922.394695 -326.740906 7921613.000000 1.000000 1.000000 -726654.562500 0.000000 
3044.240195 -773.474529 -816.896210 7529511.000000 2.000000 1.000000 -726721.062500 0.000000 
2941.729453 -1155.331615 -999.795593 559137.000000 7.000000 3.000000 -727508.437500 0.000000 
3062.224570 -321.851787 -1010.325104 7919040.000000 3.000000 3.000000 -726654.937500 0.000000 
3043.388633 -830.681011 -901.835007 10474248.000000 1.000000 1.000000 -726315.625000 0.000000 
2939.840781 -1154.195598 -1000.332108 559137.000000 7.000000 6.000000 -727508.437500 0.000000 
2938.690391 -1153.503704 -1000.658798 559137.000000 7.000000 7.000000 -727508.437500 0.000000 
2860.839805 -321.459209 -999.755005 8311696.000000 3.000000 2.000000 -726591.625000 0.000000 
3377.999961 -1417.676998 -999.664703 559138.000000 5.000000 2.000000 -727508.437500 0.000000 
3377.112266 -1417.142803 -999.958801 559138.000000 5.000000 3.000000 -727508.437500 0.000000 
3376.174766 -1416.578701 -1000.269302 559138.000000 5.000000 4.000000 -727508.437500 0.000000 
3375.283164 -1416.042705 -1000.564301 559138.000000 5.000000 5.000000 -727508.437500 0.000000 
3062.345664 -630.741802 -269.649414 7333272.000000 1.000000 1.000000 -726754.312500 0.000000 
2801.967734 -400.353252 -1033.852203 7333506.000000 2.000000 1.000000 -726754.250000 0.000000 
2944.610312 -1150.992290 -999.638596 559183.000000 7.000000 2.000000 -727508.437500 0.000000 
2935.819297 -1051.705730 -1000.135193 1157975.000000 1.000000 1.000000 -727364.937500 0.000000 
2943.413047 -1150.269695 -999.979004 559183.000000 7.000000 4.000000 -727508.437500 0.000000 
3102.124961 -962.371196 -111.329346 10671264.000000 1.000000 1.000000 -726296.875000 0.000000 
3050.193320 -754.816814 -354.223206 9294438.000000 1.000000 1.000000 -726450.937500 0.000000 
3076.262656 -624.757793 -713.882599 6739782.000000 6.000000 2.000000 -726831.750000 0.000000 
3380.623984 -1414.054607 -999.453003 559184.000000 7.000000 1.000000 -727508.437500 0.000000 
3047.575156 -1008.302593 -565.835876 10081453.000000 1.000000 1.000000 -726355.187500 0.000000 
