ply
format ascii 1.0
comment Created by CloudCompare v2.12 alpha
comment Created 6/6/2021 1:20 AM
obj_info Generated by CloudCompare!
element vertex 499
property double x
property double y
property double z
property float scalar_fullwaveIndex
property float scalar_NumberOfReturns
property float scalar_ReturnNumber
property float scalar_GpsTime
property float scalar_Intensity
end_header
-2842.806191 -786.980815 -619.309082 154974.000000 1.000000 1.000000 -727586.312500 0.000000 
-3198.699502 -1030.604290 -1030.179901 10296366.000000 4.000000 1.000000 -726331.750000 0.000000 
-2847.444375 -771.286418 -246.945313 155019.000000 1.000000 1.000000 -727586.312500 0.000000 
-3078.974648 -321.546611 -1060.768501 9514366.000000 1.000000 1.000000 -726421.500000 4.000000 
-2838.163125 -773.090312 -990.279999 155021.000000 1.000000 1.000000 -727586.312500 0.000000 
-2631.856484 -321.566509 -1060.929703 7958922.000000 1.000000 1.000000 -726645.437500 4.000000 
-2842.807168 -757.384380 -618.976807 155066.000000 1.000000 1.000000 -727586.312500 0.000000 
-2838.155313 -758.296184 -990.237106 155067.000000 1.000000 1.000000 -727586.312500 0.000000 
-3064.126504 -954.948284 -107.828247 8349502.000000 7.000000 5.000000 -726584.187500 0.000000 
-2843.105020 -643.092571 -587.199524 7765075.000000 5.000000 3.000000 -726679.062500 0.000000 
-2838.161660 -743.488811 -990.194702 155113.000000 1.000000 1.000000 -727586.312500 0.000000 
-2847.492715 -726.815105 -246.066711 155157.000000 1.000000 1.000000 -727586.312500 0.000000 
-2842.797891 -727.751018 -618.642395 155158.000000 1.000000 1.000000 -727586.312500 0.000000 
-2948.107949 -683.843608 -235.248474 9903659.000000 3.000000 3.000000 -726374.375000 0.000000 
-2847.490762 -711.975383 -245.771973 155203.000000 1.000000 1.000000 -727586.312500 0.000000 
-2842.799844 -712.917583 -618.474182 155204.000000 1.000000 1.000000 -727586.312500 0.000000 
-2998.573770 -965.593425 -108.734741 8348996.000000 7.000000 1.000000 -726584.312500 0.000000 
-3198.281289 -362.856548 -1060.743698 9515470.000000 5.000000 2.000000 -726421.312500 0.000000 
-3032.441689 -724.417705 -107.547241 10489561.000000 7.000000 6.000000 -726312.812500 0.000000 
-2838.142129 -699.015972 -990.068604 155251.000000 1.000000 1.000000 -727586.312500 0.000000 
-2847.504922 -682.261516 -245.177124 155295.000000 1.000000 1.000000 -727586.312500 0.000000 
-3009.746377 -1024.523906 -108.407959 8543438.000000 7.000000 2.000000 -726555.687500 0.000000 
-3197.981484 -888.740886 -1041.857101 9905964.000000 5.000000 3.000000 -726374.000000 0.000000 
-3198.639443 -710.985820 -1049.489304 9710786.000000 5.000000 1.000000 -726396.437500 0.000000 
-3198.363809 -1181.299114 -1026.933197 10296872.000000 4.000000 2.000000 -726331.687500 0.000000 
-2934.924844 -612.258770 -108.406616 7765808.000000 7.000000 2.000000 -726679.000000 0.000000 
-2846.042520 -627.702007 -501.958801 8542474.000000 1.000000 1.000000 -726555.750000 4.000000 
-2840.954629 -802.850200 -759.816986 8348034.000000 6.000000 3.000000 -726584.437500 0.000000 
-2838.210488 -654.429973 -989.946396 155389.000000 1.000000 1.000000 -727586.250000 0.000000 
-2851.757852 -628.363750 -457.893372 7959746.000000 1.000000 1.000000 -726645.312500 2.000000 
-2842.847695 -638.587871 -617.623108 155434.000000 1.000000 1.000000 -727586.250000 0.000000 
-2838.201211 -639.554973 -989.905807 155435.000000 1.000000 1.000000 -727586.250000 0.000000 
-3037.208291 -321.601177 -1052.879700 7767608.000000 1.000000 1.000000 -726678.562500 2.000000 
-3193.991982 -1411.794399 -999.028305 350154.000000 1.000000 1.000000 -727550.687500 0.000000 
-3193.373086 -1397.471385 -999.027802 350200.000000 1.000000 1.000000 -727550.687500 0.000000 
-3198.374307 -1240.046611 -1020.856003 10492326.000000 4.000000 2.000000 -726312.375000 0.000000 
-2597.604043 -725.096477 -1051.558098 7957588.000000 5.000000 2.000000 -726645.687500 0.000000 
-2840.565469 -668.064189 -765.022705 8153960.000000 5.000000 2.000000 -726614.312500 0.000000 
-2955.027871 -624.193706 -781.302795 8543396.000000 1.000000 1.000000 -726555.687500 3.000000 
-3189.971230 -1325.834087 -999.025696 350430.000000 1.000000 1.000000 -727550.687500 0.000000 
-3189.235879 -1311.501293 -999.025696 350476.000000 1.000000 1.000000 -727550.687500 0.000000 
-3198.772744 -1377.558910 -1017.973694 10492786.000000 4.000000 1.000000 -726312.250000 0.000000 
-2629.990273 -321.095684 -1016.106598 10877208.000000 3.000000 1.000000 -726271.687500 0.000000 
-3197.232705 -1281.123088 -999.513000 350568.000000 2.000000 2.000000 -727550.625000 0.000000 
-2954.635293 -915.122722 -704.148804 9904490.000000 5.000000 2.000000 -726374.250000 0.000000 
-2951.794961 -877.182598 -561.219971 9709541.000000 5.000000 5.000000 -726396.687500 0.000000 
-3186.049355 -1254.164012 -999.024399 350660.000000 2.000000 1.000000 -727550.625000 0.000000 
-3195.590615 -1252.424388 -999.512299 350660.000000 2.000000 2.000000 -727550.625000 0.000000 
-3185.202188 -1239.826396 -999.024200 350706.000000 2.000000 1.000000 -727550.625000 0.000000 
-3194.749063 -1238.071300 -999.512497 350706.000000 2.000000 2.000000 -727550.625000 0.000000 
-3184.319863 -1225.490398 -999.023300 350752.000000 1.000000 1.000000 -727550.625000 0.000000 
-2949.523477 -673.435283 -324.786194 9319965.000000 5.000000 3.000000 -726446.375000 0.000000 
-2914.485391 -495.719219 -105.207642 9902738.000000 1.000000 1.000000 -726374.500000 2.000000 
-2846.702676 -637.067241 -273.442810 7765119.000000 3.000000 1.000000 -726679.062500 0.000000 
-2846.410195 -815.308086 -267.859680 7959193.000000 5.000000 1.000000 -726645.437500 0.000000 
-3067.586709 -851.687419 -108.735229 8155244.000000 7.000000 1.000000 -726614.125000 0.000000 
-2851.795938 -598.024517 -153.197205 10292819.000000 2.000000 2.000000 -726332.312500 1.000000 
-2607.634316 -321.504741 -1062.677498 9122170.000000 1.000000 1.000000 -726472.625000 4.000000 
-3198.306924 -699.209514 -1046.176102 9905366.000000 4.000000 2.000000 -726374.125000 0.000000 
-2949.209512 -787.383770 -300.838806 9320195.000000 5.000000 3.000000 -726446.375000 0.000000 
-2902.576699 -502.026226 -108.204102 8737051.000000 6.000000 2.000000 -726526.375000 0.000000 
-3178.703408 -1139.430217 -999.024597 351028.000000 3.000000 1.000000 -727550.562500 0.000000 
-2950.599160 -976.025310 -381.497375 9709816.000000 5.000000 2.000000 -726396.625000 0.000000 
-2897.622109 -784.630596 -114.644653 9514268.000000 5.000000 4.000000 -726421.562500 0.000000 
-3177.677529 -1125.086589 -999.024002 351074.000000 3.000000 1.000000 -727550.562500 0.000000 
-2954.388223 -841.156597 -739.518707 9514824.000000 5.000000 4.000000 -726421.437500 0.000000 
-3198.712930 -1222.758098 -1039.957199 9517356.000000 5.000000 1.000000 -726420.937500 0.000000 
-3024.108193 -546.982646 -107.619019 9903658.000000 7.000000 6.000000 -726374.375000 0.000000 
-3186.151406 -1108.861675 -999.511795 351120.000000 3.000000 2.000000 -727550.562500 0.000000 
-3176.484658 -321.553447 -1058.344200 9709406.000000 1.000000 1.000000 -726396.687500 3.000000 
-2844.208047 -660.649517 -472.946594 8154004.000000 5.000000 2.000000 -726614.312500 0.000000 
-2845.411660 -661.962810 -427.744507 7765028.000000 4.000000 4.000000 -726679.062500 0.000000 
-3179.374307 -321.523052 -1065.742897 8739634.000000 1.000000 1.000000 -726525.875000 5.000000 
-3174.478555 -1082.050090 -999.022797 351212.000000 3.000000 1.000000 -727550.562500 0.000000 
-2845.222695 -732.406902 -416.414124 7764798.000000 5.000000 3.000000 -726679.125000 0.000000 
-2597.959023 -1256.601787 -1038.710503 7956484.000000 5.000000 3.000000 -726646.000000 0.000000 
-2849.996621 -629.501445 -362.214478 8736593.000000 1.000000 1.000000 -726526.375000 4.000000 
-2951.481484 -1057.450725 -538.081604 9710047.000000 5.000000 5.000000 -726396.625000 0.000000 
-3010.967080 -1053.257427 -108.244751 8737834.000000 7.000000 3.000000 -726526.250000 0.000000 
-2893.328652 -622.761821 -904.177994 7960071.000000 1.000000 1.000000 -726645.250000 3.000000 
-2926.891641 -1117.682720 -627.705505 351257.000000 7.000000 3.000000 -727550.500000 0.000000 
-2930.893105 -1116.874187 -627.756775 351257.000000 7.000000 4.000000 -727550.500000 0.000000 
-3197.725381 -1034.555278 -1013.913193 10882498.000000 2.000000 2.000000 -726270.437500 0.000000 
-2928.557168 -912.506694 -108.245850 10294475.000000 7.000000 3.000000 -726332.125000 0.000000 
-2948.525918 -909.451519 -275.120605 9320425.000000 5.000000 4.000000 -726446.312500 0.000000 
-3197.647500 -998.224224 -1035.374702 10101188.000000 4.000000 4.000000 -726352.000000 0.000000 
-2900.026895 -1122.942791 -984.993195 351258.000000 7.000000 2.000000 -727550.437500 0.000000 
-2597.230020 -654.039470 -1057.065300 8346242.000000 7.000000 1.000000 -726584.687500 0.000000 
-3084.681924 -761.494915 -108.273315 10489975.000000 7.000000 3.000000 -726312.750000 0.000000 
-3001.718301 -500.215068 -108.032837 8737925.000000 6.000000 4.000000 -726526.187500 0.000000 
-2950.085000 -928.232097 -429.846191 9320472.000000 5.000000 5.000000 -726446.312500 0.000000 
-2915.939980 -1119.726970 -985.809906 351258.000000 7.000000 7.000000 -727550.437500 0.000000 
-2917.099648 -1119.492595 -985.869400 351258.000000 7.000000 7.000000 -727550.437500 0.000000 
-2874.807168 -1114.253826 -270.564514 351302.000000 7.000000 1.000000 -727550.437500 0.000000 
-2956.618203 -321.451152 -1028.991997 10682858.000000 2.000000 1.000000 -726295.187500 0.000000 
-2879.905801 -1113.215801 -270.433716 351302.000000 7.000000 3.000000 -727550.437500 0.000000 
-2883.907266 -1112.401104 -270.331116 351302.000000 7.000000 4.000000 -727550.437500 0.000000 
-2887.836465 -1111.601299 -270.230286 351302.000000 7.000000 5.000000 -727550.437500 0.000000 
-3026.518838 -566.536846 -108.019653 7766590.000000 7.000000 4.000000 -726678.875000 0.000000 
-2902.423379 -624.033184 -815.768311 10879599.000000 2.000000 2.000000 -726271.125000 0.000000 
-2956.309609 -1013.100383 -866.317505 9904813.000000 5.000000 3.000000 -726374.187500 0.000000 
-3197.726357 -790.831829 -1018.460007 10881532.000000 2.000000 2.000000 -726270.875000 0.000000 
-2847.427285 -682.208721 -294.879517 7959561.000000 5.000000 5.000000 -726645.375000 0.000000 
-3198.272012 -431.436382 -1061.385498 9321534.000000 5.000000 2.000000 -726446.062500 0.000000 
-2865.115273 -1116.058818 -626.863708 351303.000000 7.000000 5.000000 -727550.437500 0.000000 
-2869.047891 -1115.258220 -626.914124 351303.000000 7.000000 6.000000 -727550.437500 0.000000 
-2898.339883 -979.241313 -173.623474 9904349.000000 4.000000 2.000000 -726374.312500 0.000000 
-3197.347939 -715.182476 -1045.803398 9905412.000000 5.000000 5.000000 -726374.062500 0.000000 
-3099.342080 -321.566143 -1056.391197 7962602.000000 1.000000 1.000000 -726644.812500 3.000000 
-3198.664346 -818.419780 -1039.357002 10100590.000000 4.000000 1.000000 -726352.125000 0.000000 
-2846.417031 -1119.698101 -982.294296 351304.000000 5.000000 4.000000 -727550.437500 0.000000 
-2847.584023 -1119.460491 -982.354202 351304.000000 5.000000 5.000000 -727550.437500 0.000000 
-2841.515664 -630.218364 -768.672394 8154052.000000 5.000000 5.000000 -726614.312500 0.000000 
-2843.913613 -627.003643 -562.998291 9902787.000000 1.000000 1.000000 -726374.500000 1.000000 
-3159.401895 -321.524883 -1065.787201 8739450.000000 1.000000 1.000000 -726525.937500 5.000000 
-2907.815469 -503.695049 -107.690552 8737097.000000 6.000000 5.000000 -726526.375000 0.000000 
-2842.719766 -1092.447979 -626.477478 351395.000000 1.000000 1.000000 -727550.437500 0.000000 
-2741.656289 -321.566143 -1048.758904 9900904.000000 1.000000 1.000000 -726374.812500 1.000000 
-2733.201211 -321.530254 -1065.913101 8541696.000000 1.000000 1.000000 -726555.875000 5.000000 
-3049.804238 -736.855571 -107.789063 10489699.000000 7.000000 5.000000 -726312.812500 0.000000 
-2838.270059 -1079.108989 -982.040298 351442.000000 1.000000 1.000000 -727550.437500 0.000000 
-3198.271523 -329.028545 -1061.553596 9515378.000000 5.000000 2.000000 -726421.375000 0.000000 
-2842.718789 -1064.244670 -626.379700 351487.000000 1.000000 1.000000 -727550.437500 0.000000 
-2838.264199 -1065.010906 -982.096893 351488.000000 1.000000 1.000000 -727550.437500 0.000000 
-3197.964395 -981.293071 -1039.736397 9906240.000000 5.000000 3.000000 -726373.937500 0.000000 
-2842.714395 -1050.131206 -626.331116 351533.000000 1.000000 1.000000 -727550.437500 0.000000 
-2878.422891 -622.481548 -920.522507 8542753.000000 1.000000 1.000000 -726555.750000 4.000000 
-2847.151406 -1035.232524 -270.348694 351578.000000 1.000000 1.000000 -727550.437500 0.000000 
-2842.702188 -1036.010906 -626.282715 351579.000000 1.000000 1.000000 -727550.437500 0.000000 
-2838.257852 -1036.788372 -982.213806 351580.000000 1.000000 1.000000 -727550.437500 0.000000 
-2980.871133 -969.251079 -108.735962 8348858.000000 7.000000 1.000000 -726584.312500 0.000000 
-2921.691445 -626.252056 -626.004517 9319645.000000 1.000000 1.000000 -726446.437500 3.000000 
-2838.258340 -1022.663494 -982.274094 351626.000000 1.000000 1.000000 -727550.437500 0.000000 
-3197.726846 -663.912273 -1032.615196 10490164.000000 2.000000 2.000000 -726312.750000 0.000000 
-2845.416543 -991.247783 -374.410706 7764016.000000 5.000000 2.000000 -726679.250000 0.000000 
-3195.245889 -321.532695 -1061.709602 9515332.000000 1.000000 1.000000 -726421.375000 4.000000 
-3006.577920 -321.509014 -1062.940300 9319648.000000 1.000000 1.000000 -726446.437500 4.000000 
-2842.700723 -993.590801 -626.139709 351717.000000 1.000000 1.000000 -727550.437500 0.000000 
-2950.584512 -714.021770 -466.785889 9320058.000000 5.000000 5.000000 -726446.375000 0.000000 
-2847.156289 -978.626628 -269.720703 351762.000000 1.000000 1.000000 -727550.437500 0.000000 
-2956.808145 -799.079326 -907.430405 9125941.000000 6.000000 3.000000 -726471.875000 0.000000 
-3197.991494 -658.591899 -1053.632004 9516206.000000 5.000000 3.000000 -726421.187500 0.000000 
-3197.662148 -820.194011 -1039.305801 10100590.000000 4.000000 4.000000 -726352.125000 0.000000 
-3198.298379 -657.562297 -1053.658997 9516206.000000 5.000000 2.000000 -726421.187500 0.000000 
-2838.241250 -966.081279 -982.525497 351810.000000 1.000000 1.000000 -727550.437500 0.000000 
-3198.617715 -615.370952 -1051.729599 9710510.000000 4.000000 1.000000 -726396.500000 0.000000 
-2842.689980 -951.093792 -625.999084 351855.000000 1.000000 1.000000 -727550.437500 0.000000 
-2838.232461 -951.914714 -982.590897 351856.000000 1.000000 1.000000 -727550.437500 0.000000 
-2847.152383 -936.081096 -269.244019 351900.000000 1.000000 1.000000 -727550.437500 0.000000 
-2807.961953 -657.480876 -175.540527 8153726.000000 5.000000 3.000000 -726614.375000 0.000000 
-2838.230996 -937.737407 -982.657806 351902.000000 1.000000 1.000000 -727550.437500 0.000000 
-3198.647012 -843.477092 -1049.168503 9516620.000000 6.000000 1.000000 -726421.062500 0.000000 
-2842.741738 -922.704509 -625.907471 351947.000000 1.000000 1.000000 -727550.375000 0.000000 
-2956.466348 -714.917095 -907.979095 9320107.000000 5.000000 4.000000 -726446.375000 0.000000 
-2949.281777 -883.495281 -302.616028 10294476.000000 1.000000 1.000000 -726332.125000 0.000000 
-2794.493691 -321.569316 -1054.127998 9706554.000000 1.000000 1.000000 -726397.187500 2.000000 
-2838.210000 -909.359905 -982.794006 351994.000000 1.000000 1.000000 -727550.375000 0.000000 
-2847.203164 -893.441692 -268.760803 352038.000000 1.000000 1.000000 -727550.375000 0.000000 
-2950.105020 -714.047527 -424.191589 9709034.000000 5.000000 5.000000 -726396.750000 0.000000 
-3035.939004 -957.132976 -107.841187 9321160.000000 7.000000 5.000000 -726446.187500 0.000000 
-2847.203652 -879.213787 -268.598999 352084.000000 1.000000 1.000000 -727550.375000 0.000000 
-2842.736367 -880.070476 -625.771118 352085.000000 1.000000 1.000000 -727550.375000 0.000000 
-2838.274941 -880.926006 -982.939102 352086.000000 1.000000 1.000000 -727550.375000 0.000000 
-2823.968789 -581.560894 -187.318481 9318768.000000 1.000000 1.000000 -726446.625000 3.000000 
-2842.734902 -865.840496 -625.726196 352131.000000 1.000000 1.000000 -727550.375000 0.000000 
-3097.863564 -321.603252 -1053.438004 9903296.000000 1.000000 1.000000 -726374.437500 2.000000 
-2954.742227 -494.681499 -102.149780 8543529.000000 1.000000 1.000000 -726555.687500 4.000000 
-2846.854531 -713.862590 -288.489319 7959469.000000 5.000000 3.000000 -726645.375000 0.000000 
-2597.284707 -803.850627 -1049.665398 7957404.000000 5.000000 1.000000 -726645.750000 0.000000 
-2597.334512 -416.275493 -1058.957298 7958370.000000 5.000000 1.000000 -726645.562500 0.000000 
-2842.729043 -837.352886 -625.637329 352223.000000 1.000000 1.000000 -727550.375000 0.000000 
-2891.268594 -605.269634 -107.790405 10488365.000000 7.000000 5.000000 -726313.062500 0.000000 
-2847.096719 -761.820415 -330.249329 8542381.000000 7.000000 7.000000 -726555.812500 0.000000 
-2842.725137 -823.095073 -625.593201 352269.000000 1.000000 1.000000 -727550.375000 0.000000 
-2838.255898 -823.979595 -983.235306 352270.000000 1.000000 1.000000 -727550.375000 0.000000 
-3045.709023 -955.501995 -108.721191 8349364.000000 7.000000 1.000000 -726584.250000 0.000000 
-2842.732949 -808.824871 -625.549622 352315.000000 1.000000 1.000000 -727550.375000 0.000000 
-2838.256875 -809.717815 -983.312500 352316.000000 1.000000 1.000000 -727550.375000 0.000000 
-2940.855020 -919.730022 -108.488770 10294567.000000 7.000000 2.000000 -726332.062500 0.000000 
-2842.729531 -794.547588 -625.506104 352361.000000 1.000000 1.000000 -727550.375000 0.000000 
-2838.250527 -795.448101 -983.390396 352362.000000 1.000000 1.000000 -727550.375000 0.000000 
-2788.296914 -321.727275 -1025.924103 10682122.000000 2.000000 2.000000 -726295.312500 0.000000 
-2847.313516 -1038.688091 -222.084229 7958641.000000 5.000000 2.000000 -726645.500000 0.000000 
-2838.246621 -781.168010 -983.469604 352408.000000 1.000000 1.000000 -727550.375000 0.000000 
-2847.195840 -765.051372 -267.284912 352452.000000 1.000000 1.000000 -727550.312500 0.000000 
-2842.716836 -765.965190 -625.419922 352453.000000 1.000000 1.000000 -727550.312500 0.000000 
-2951.811563 -920.366313 -534.423096 9904489.000000 4.000000 4.000000 -726374.250000 0.000000 
-2847.189004 -750.738628 -267.118225 352498.000000 1.000000 1.000000 -727550.312500 0.000000 
-3198.311318 -715.412395 -1041.608101 10100222.000000 3.000000 1.000000 -726352.187500 0.000000 
-3045.575723 -730.785625 -108.248047 10489653.000000 7.000000 3.000000 -726312.812500 0.000000 
-3001.948770 -968.855083 -107.180176 10295073.000000 7.000000 7.000000 -726332.000000 0.000000 
-2842.708535 -737.342205 -625.334900 352545.000000 1.000000 1.000000 -727550.312500 0.000000 
-2838.237344 -738.267986 -983.714203 352546.000000 1.000000 1.000000 -727550.312500 0.000000 
-2847.193398 -722.078777 -266.782593 352590.000000 1.000000 1.000000 -727550.312500 0.000000 
-2950.276406 -772.434673 -354.557007 10098930.000000 2.000000 1.000000 -726352.437500 0.000000 
-2952.987832 -924.569377 -621.136414 10685432.000000 2.000000 2.000000 -726294.750000 0.000000 
-2847.191934 -707.734600 -266.614075 352636.000000 1.000000 1.000000 -727550.312500 0.000000 
-3197.960000 -487.389019 -1057.753601 9515792.000000 5.000000 3.000000 -726421.250000 0.000000 
-2838.276406 -709.606609 -983.885300 352638.000000 1.000000 1.000000 -727550.312500 0.000000 
-2597.240762 -1111.477581 -1045.639198 8345828.000000 7.000000 2.000000 -726584.750000 0.000000 
-2927.807168 -625.977153 -641.851593 8543165.000000 1.000000 1.000000 -726555.687500 4.000000 
-2844.102578 -766.278606 -454.854187 8153774.000000 5.000000 1.000000 -726614.375000 0.000000 
-2598.730996 -1114.327800 -1042.155701 7956760.000000 5.000000 5.000000 -726645.937500 0.000000 
-2944.873086 -631.477764 -203.253174 9125614.000000 1.000000 1.000000 -726471.937500 3.000000 
-2838.285684 -680.911907 -984.059494 352730.000000 1.000000 1.000000 -727550.312500 0.000000 
-2847.244180 -664.626323 -266.103516 352774.000000 1.000000 1.000000 -727550.250000 0.000000 
-3197.635049 -991.450115 -1042.868797 9711522.000000 5.000000 4.000000 -726396.312500 0.000000 
-2919.023965 -626.429546 -610.526306 9513995.000000 1.000000 1.000000 -726421.562500 3.000000 
-2847.246621 -650.239727 -265.932617 352820.000000 1.000000 1.000000 -727550.250000 0.000000 
-2842.756387 -651.211223 -625.087708 352821.000000 1.000000 1.000000 -727550.250000 0.000000 
-2598.270059 -594.543560 -1054.687103 7957910.000000 5.000000 4.000000 -726645.625000 0.000000 
-2951.618691 -880.352886 -487.310120 10294477.000000 2.000000 1.000000 -726332.125000 0.000000 
-2842.748086 -636.823955 -625.047302 352867.000000 1.000000 1.000000 -727550.250000 0.000000 
-2954.036660 -888.396404 -745.184113 9320428.000000 5.000000 5.000000 -726446.312500 0.000000 
-2926.283730 -629.437114 -373.640625 10098240.000000 1.000000 1.000000 -726352.500000 1.000000 
-3117.335977 -536.659648 -999.016495 352960.000000 5.000000 1.000000 -727550.250000 0.000000 
-3126.786172 -534.209941 -999.507599 352960.000000 5.000000 2.000000 -727550.250000 0.000000 
-3136.241250 -531.758770 -999.998993 352960.000000 5.000000 3.000000 -727550.250000 0.000000 
-2642.680215 -321.524150 -1064.871902 8928510.000000 1.000000 1.000000 -726499.187500 5.000000 
-2955.344766 -772.270305 -763.976013 9125894.000000 6.000000 2.000000 -726471.875000 0.000000 
-2843.825234 -988.717693 -586.483276 8347803.000000 6.000000 5.000000 -726584.437500 0.000000 
-3198.326211 -829.052776 -1046.709999 9711108.000000 5.000000 2.000000 -726396.375000 0.000000 
-3197.154580 -1281.191509 -1038.523804 9517448.000000 5.000000 5.000000 -726420.875000 0.000000 
-2916.783242 -625.477397 -688.100006 10293282.000000 1.000000 1.000000 -726332.250000 1.000000 
-3198.024697 -931.496196 -1021.730804 10686584.000000 2.000000 1.000000 -726294.562500 0.000000 
-2821.574258 -581.711528 -193.365295 8154002.000000 6.000000 1.000000 -726614.312500 0.000000 
-3132.340615 -503.009258 -999.997894 353052.000000 5.000000 3.000000 -727550.187500 0.000000 
-2954.374063 -709.195598 -770.239288 9125802.000000 6.000000 6.000000 -726471.875000 0.000000 
-2948.208047 -1071.998271 -219.716614 9515327.000000 5.000000 3.000000 -726421.375000 0.000000 
-2840.175820 -962.811321 -877.019989 7764065.000000 5.000000 5.000000 -726679.187500 0.000000 
-2936.727578 -628.773418 -425.954529 7765764.000000 1.000000 1.000000 -726679.000000 2.000000 
-3130.366006 -488.633403 -999.997803 353098.000000 5.000000 3.000000 -727550.187500 0.000000 
-3139.866006 -486.125957 -1000.492096 353098.000000 5.000000 4.000000 -727550.187500 0.000000 
-2889.781777 -630.280254 -302.113098 7960021.000000 1.000000 1.000000 -726645.312500 2.000000 
-2841.503945 -934.382000 -715.146606 7764156.000000 5.000000 3.000000 -726679.187500 0.000000 
-2956.557656 -967.942791 -886.308502 9515147.000000 5.000000 3.000000 -726421.375000 0.000000 
-3128.362832 -474.259868 -999.997406 353144.000000 5.000000 3.000000 -727550.125000 0.000000 
-2952.598672 -1037.886577 -540.657471 9710001.000000 5.000000 2.000000 -726396.625000 0.000000 
-2838.575723 -992.863994 -894.733002 8347759.000000 6.000000 1.000000 -726584.437500 0.000000 
-3107.483682 -464.922588 -999.015106 353190.000000 5.000000 1.000000 -727550.125000 0.000000 
-3198.283975 -436.016948 -1052.101097 9904446.000000 3.000000 1.000000 -726374.250000 0.000000 
-2956.689492 -762.803997 -868.948914 10098933.000000 3.000000 1.000000 -726352.437500 0.000000 
-3135.828408 -457.352642 -1000.491104 353190.000000 5.000000 4.000000 -727550.125000 0.000000 
-2897.976602 -979.930217 -173.454529 9904349.000000 4.000000 3.000000 -726374.312500 0.000000 
-3105.440713 -450.579326 -999.014496 353236.000000 5.000000 1.000000 -727550.125000 0.000000 
-2926.003945 -630.394634 -296.538391 10488642.000000 1.000000 1.000000 -726313.000000 0.000000 
-3124.356729 -445.497661 -999.999802 353236.000000 5.000000 3.000000 -727550.125000 0.000000 
-3198.053506 -604.631938 -1021.851898 10880750.000000 2.000000 1.000000 -726271.000000 0.000000 
-2598.282754 -489.366191 -1061.170799 8346426.000000 7.000000 5.000000 -726584.625000 0.000000 
-3103.382119 -436.235210 -999.014099 353282.000000 5.000000 1.000000 -727550.062500 0.000000 
-2928.763223 -822.217083 -108.228760 9514590.000000 7.000000 3.000000 -726421.500000 0.000000 
-2954.740273 -840.141277 -739.627106 9514824.000000 5.000000 3.000000 -726421.437500 0.000000 
-3131.713906 -428.579448 -1000.490601 353282.000000 5.000000 4.000000 -727550.062500 0.000000 
-2957.071816 -882.499614 -873.660095 9904399.000000 4.000000 1.000000 -726374.250000 0.000000 
-3198.721230 -1280.067089 -1032.846001 9907068.000000 5.000000 1.000000 -726373.750000 0.000000 
-3110.732461 -419.328716 -999.505402 353328.000000 5.000000 2.000000 -727550.062500 0.000000 
-2962.950234 -937.727886 -108.005371 10294751.000000 7.000000 4.000000 -726332.062500 0.000000 
-3129.626016 -414.193706 -1000.490402 353328.000000 5.000000 4.000000 -727550.062500 0.000000 
-2955.779824 -829.610881 -876.572998 9904215.000000 5.000000 5.000000 -726374.312500 0.000000 
-2963.845742 -976.248699 -107.842285 8348720.000000 7.000000 5.000000 -726584.312500 0.000000 
-2935.701211 -625.968242 -643.610901 8931405.000000 1.000000 1.000000 -726498.750000 4.000000 
-3118.087441 -402.386089 -999.998505 353374.000000 5.000000 3.000000 -727550.062500 0.000000 
-3127.570596 -399.793804 -1000.493103 353374.000000 5.000000 4.000000 -727550.062500 0.000000 
-2953.744180 -1094.875408 -724.931213 9320796.000000 5.000000 5.000000 -726446.250000 0.000000 
-3097.143350 -393.189189 -999.016602 353420.000000 5.000000 1.000000 -727550.062500 0.000000 
-3106.558389 -390.600688 -999.507797 353420.000000 5.000000 2.000000 -727550.062500 0.000000 
-2956.387246 -702.431377 -872.149414 10098703.000000 2.000000 1.000000 -726352.437500 0.000000 
-3125.430703 -385.411846 -1000.492493 353420.000000 5.000000 4.000000 -727550.062500 0.000000 
-3134.904580 -382.807109 -1000.986801 353420.000000 5.000000 5.000000 -727550.062500 0.000000 
-2809.407266 -604.280254 -192.981873 10097457.000000 7.000000 3.000000 -726352.625000 0.000000 
-2842.777383 -697.064006 -615.237183 8153913.000000 5.000000 3.000000 -726614.312500 0.000000 
-2954.370645 -657.678020 -708.454193 10098518.000000 3.000000 2.000000 -726352.437500 0.000000 
-3123.279580 -371.028057 -1000.492401 353466.000000 5.000000 4.000000 -727550.000000 0.000000 
-2952.968789 -1020.239727 -542.945984 9709955.000000 5.000000 1.000000 -726396.625000 0.000000 
-3092.827920 -364.509258 -999.015701 353512.000000 4.000000 1.000000 -727550.000000 0.000000 
-3111.639932 -359.277812 -999.998001 353512.000000 4.000000 2.000000 -727550.000000 0.000000 
-2920.267129 -629.498394 -362.133484 8737191.000000 1.000000 1.000000 -726526.312500 4.000000 
-3130.553018 -354.018169 -1000.985596 353512.000000 4.000000 4.000000 -727550.000000 0.000000 
-2598.372598 -321.525005 -1065.843697 8734252.000000 1.000000 1.000000 -726526.812500 5.000000 
-3100.044961 -347.539775 -999.506699 353558.000000 5.000000 2.000000 -727550.000000 0.000000 
-2950.283730 -808.280681 -398.252014 10880563.000000 1.000000 1.000000 -726271.000000 0.000000 
-3012.241494 -502.042339 -107.367188 8738017.000000 5.000000 5.000000 -726526.187500 0.000000 
-2845.481484 -830.141887 -424.646973 7959148.000000 5.000000 4.000000 -726645.437500 0.000000 
-3052.018105 -1022.254070 -107.618042 8543760.000000 7.000000 6.000000 -726555.625000 0.000000 
-3097.825479 -333.189556 -999.506104 353604.000000 4.000000 2.000000 -727550.000000 0.000000 
-2954.302285 -1024.825481 -676.914612 10099852.000000 3.000000 1.000000 -726352.250000 0.000000 
-3126.121621 -325.231060 -1000.984894 353604.000000 4.000000 4.000000 -727550.000000 0.000000 
-2946.277383 -1114.103923 -263.072693 548643.000000 3.000000 1.000000 -727511.437500 0.000000 
-3019.683145 -980.730327 -107.180298 10295211.000000 7.000000 7.000000 -726332.000000 0.000000 
-3198.656289 -872.212993 -1042.241898 9905918.000000 5.000000 1.000000 -726374.000000 0.000000 
-2926.106973 -1118.179790 -608.122620 548644.000000 7.000000 2.000000 -727511.375000 0.000000 
-2929.741738 -1117.415874 -608.309509 548644.000000 7.000000 3.000000 -727511.375000 0.000000 
-2933.493203 -1116.627483 -608.502319 548644.000000 7.000000 4.000000 -727511.375000 0.000000 
-2925.859414 -321.499736 -1066.090500 8737288.000000 1.000000 1.000000 -726526.312500 5.000000 
-3069.841348 -321.525005 -1064.944603 8544778.000000 1.000000 1.000000 -726555.437500 5.000000 
-2940.873574 -1115.076274 -608.881775 548644.000000 7.000000 7.000000 -727511.375000 0.000000 
-2956.998086 -833.846294 -894.314896 9514825.000000 5.000000 2.000000 -726421.437500 0.000000 
-3160.718545 -321.578350 -1049.573898 10098428.000000 1.000000 1.000000 -726352.500000 2.000000 
-2904.836465 -1122.487590 -952.830093 548645.000000 7.000000 2.000000 -727511.375000 0.000000 
-2840.544961 -957.843608 -736.795807 8153362.000000 5.000000 1.000000 -726614.437500 0.000000 
-2990.366738 -686.102886 -108.248169 10489193.000000 7.000000 3.000000 -726312.875000 0.000000 
-2842.523965 -857.333599 -578.842896 7959057.000000 5.000000 1.000000 -726645.437500 0.000000 
-2916.283730 -1120.081523 -953.861694 548645.000000 7.000000 6.000000 -727511.375000 0.000000 
-2898.363809 -1036.161479 -124.706665 10099573.000000 3.000000 1.000000 -726352.312500 0.000000 
-3034.912881 -868.185405 -107.246338 8154968.000000 7.000000 7.000000 -726614.187500 0.000000 
-2903.945840 -631.076152 -107.618286 7765532.000000 7.000000 6.000000 -726679.062500 0.000000 
-2882.678750 -1113.842388 -262.206299 548689.000000 7.000000 2.000000 -727511.375000 0.000000 
-2903.899941 -624.319805 -776.322693 8348816.000000 1.000000 1.000000 -726584.312500 4.000000 
-2983.013711 -884.112896 -107.244629 8154554.000000 7.000000 7.000000 -726614.250000 0.000000 
-2893.590859 -1111.532512 -262.346497 548689.000000 7.000000 5.000000 -727511.375000 0.000000 
-2954.001504 -874.211223 -707.785400 9904352.000000 5.000000 4.000000 -726374.312500 0.000000 
-2897.600137 -733.677104 -155.008606 9319688.000000 5.000000 4.000000 -726446.437500 0.000000 
-2815.354043 -607.181377 -193.199097 10097503.000000 7.000000 2.000000 -726352.625000 0.000000 
-2952.354043 -861.732891 -605.408325 9125985.000000 6.000000 5.000000 -726471.875000 0.000000 
-2865.254922 -1117.368816 -605.047485 548690.000000 7.000000 3.000000 -727511.375000 0.000000 
-2900.529824 -626.432842 -609.626404 9513857.000000 1.000000 1.000000 -726421.625000 3.000000 
-2950.818887 -1106.481426 -399.070190 9320794.000000 5.000000 2.000000 -726446.250000 0.000000 
-2876.211953 -1115.049175 -605.610901 548690.000000 7.000000 6.000000 -727511.375000 0.000000 
-2877.209023 -1114.838115 -605.662170 548690.000000 7.000000 7.000000 -727511.375000 0.000000 
-2839.601602 -1122.637981 -947.106796 548691.000000 7.000000 1.000000 -727511.375000 0.000000 
-3033.112832 -501.147808 -107.362671 8738201.000000 7.000000 7.000000 -726526.187500 0.000000 
-2845.305703 -928.027629 -440.625977 8347894.000000 6.000000 4.000000 -726584.437500 0.000000 
-2847.946328 -1120.871318 -947.859100 548691.000000 7.000000 4.000000 -727511.375000 0.000000 
-2867.471230 -627.844951 -492.571289 9124972.000000 1.000000 1.000000 -726472.000000 4.000000 
-2955.041543 -830.833477 -711.712189 9904214.000000 4.000000 1.000000 -726374.312500 0.000000 
-3198.041543 -583.398784 -1022.232697 10880658.000000 2.000000 1.000000 -726271.000000 0.000000 
-2954.829141 -711.008586 -722.367004 9903800.000000 3.000000 1.000000 -726374.375000 0.000000 
-2847.265176 -1107.758098 -261.701782 548735.000000 1.000000 1.000000 -727511.375000 0.000000 
-2597.187051 -1329.798503 -1036.937302 7956346.000000 5.000000 1.000000 -726646.000000 0.000000 
-2838.693887 -1109.262371 -947.182495 548737.000000 1.000000 1.000000 -727511.375000 0.000000 
-2847.272988 -1094.167400 -261.652588 548781.000000 1.000000 1.000000 -727511.375000 0.000000 
-2973.935098 -672.539897 -108.249146 10489055.000000 7.000000 3.000000 -726312.937500 0.000000 
-2838.684609 -1095.688518 -947.340897 548783.000000 1.000000 1.000000 -727511.375000 0.000000 
-2847.274453 -1080.569805 -261.603577 548827.000000 1.000000 1.000000 -727511.375000 0.000000 
-2973.852578 -839.342571 -107.828125 9514958.000000 7.000000 5.000000 -726421.437500 0.000000 
-2838.688516 -1082.103313 -947.502502 548829.000000 1.000000 1.000000 -727511.375000 0.000000 
-2847.273477 -1066.964397 -261.554810 548873.000000 1.000000 1.000000 -727511.312500 0.000000 
-3197.725625 -943.737773 -1021.486694 10686630.000000 2.000000 2.000000 -726294.562500 0.000000 
-2838.681191 -1068.512187 -947.664902 548875.000000 1.000000 1.000000 -727511.312500 0.000000 
-2847.271035 -1053.350811 -261.506287 548919.000000 1.000000 1.000000 -727511.312500 0.000000 
-2842.980508 -1054.129924 -604.181702 548920.000000 1.000000 1.000000 -727511.312500 0.000000 
-2844.760293 -926.950115 -427.231995 8153452.000000 5.000000 2.000000 -726614.375000 0.000000 
-2909.677773 -628.745952 -428.098511 7765580.000000 1.000000 1.000000 -726679.000000 2.000000 
-2842.983926 -1040.512981 -604.241028 548966.000000 1.000000 1.000000 -727511.312500 0.000000 
-2957.192422 -645.741680 -912.202301 9319969.000000 5.000000 2.000000 -726446.375000 0.000000 
-2598.630898 -767.962078 -1050.519600 7957496.000000 5.000000 5.000000 -726645.750000 0.000000 
-2949.037637 -1074.384685 -308.500000 10099988.000000 3.000000 3.000000 -726352.250000 0.000000 
-2841.165566 -1098.638713 -712.801086 7958460.000000 5.000000 2.000000 -726645.500000 0.000000 
-2839.302285 -865.934673 -891.037994 7959013.000000 5.000000 3.000000 -726645.437500 0.000000 
-2839.480508 -1093.459392 -877.505005 7958461.000000 5.000000 3.000000 -726645.500000 0.000000 
-2835.754922 -623.614849 -192.768188 10097687.000000 7.000000 4.000000 -726352.562500 0.000000 
-3105.499307 -321.567485 -1056.323196 7962648.000000 1.000000 1.000000 -726644.812500 3.000000 
-2842.960488 -999.618206 -604.423706 549104.000000 1.000000 1.000000 -727511.250000 0.000000 
-2838.660684 -1000.425518 -948.506607 549105.000000 1.000000 1.000000 -727511.250000 0.000000 
-2847.267129 -985.152080 -261.267822 549149.000000 1.000000 1.000000 -727511.250000 0.000000 
-2807.627969 -635.140361 -181.098022 8153772.000000 5.000000 2.000000 -726614.375000 0.000000 
-2838.720254 -986.767681 -948.686401 549151.000000 1.000000 1.000000 -727511.250000 0.000000 
-2847.262246 -971.487102 -261.220825 549195.000000 1.000000 1.000000 -727511.250000 0.000000 
-2842.963906 -972.306987 -604.551880 549196.000000 1.000000 1.000000 -727511.250000 0.000000 
-3197.083047 -1405.180095 -1038.444702 9128288.000000 7.000000 7.000000 -726471.312500 0.000000 
-2897.219766 -800.990093 -138.297180 9319826.000000 5.000000 5.000000 -726446.437500 0.000000 
-2847.804238 -1079.126873 -213.746521 7958549.000000 5.000000 3.000000 -726645.500000 0.000000 
-2988.378457 -948.606426 -107.245117 9320792.000000 7.000000 7.000000 -726446.250000 0.000000 
-2847.307656 -944.117412 -261.128479 549287.000000 1.000000 1.000000 -727511.250000 0.000000 
-3021.550820 -1021.768413 -108.738892 8543530.000000 7.000000 1.000000 -726555.687500 0.000000 
-2951.915566 -770.460002 -107.229004 7960066.000000 7.000000 7.000000 -726645.312500 0.000000 
-2774.611367 -321.502056 -1062.593597 8154238.000000 1.000000 1.000000 -726614.312500 4.000000 
-2950.627969 -857.611187 -427.543091 10685155.000000 2.000000 2.000000 -726294.812500 0.000000 
-3009.244668 -707.865215 -107.181641 10489377.000000 7.000000 7.000000 -726312.875000 0.000000 
-2952.191934 -792.563213 -590.325500 9514685.000000 5.000000 5.000000 -726421.500000 0.000000 
-2842.944863 -917.582988 -604.819885 549380.000000 1.000000 1.000000 -727511.187500 0.000000 
-3198.012490 -619.193218 -1033.507896 10489980.000000 2.000000 1.000000 -726312.750000 0.000000 
-2846.140664 -688.479900 -317.916687 8153957.000000 5.000000 2.000000 -726614.312500 0.000000 
-2843.008828 -903.863018 -604.893188 549426.000000 1.000000 1.000000 -727511.187500 0.000000 
-3198.351602 -1172.740490 -1031.492699 10101740.000000 5.000000 2.000000 -726351.937500 0.000000 
-2847.301309 -889.291118 -260.945801 549471.000000 1.000000 1.000000 -727511.187500 0.000000 
-2843.003457 -890.150005 -604.963989 549472.000000 1.000000 1.000000 -727511.187500 0.000000 
-2954.907754 -679.848186 -754.900299 9514410.000000 5.000000 3.000000 -726421.500000 0.000000 
-3198.700234 -1219.247600 -1041.932899 9322730.000000 5.000000 1.000000 -726445.875000 0.000000 
-3198.008096 -624.324932 -1038.743103 10294848.000000 3.000000 2.000000 -726332.062500 0.000000 
-3197.969033 -555.499248 -1053.122704 9710326.000000 4.000000 3.000000 -726396.562500 0.000000 
-3053.922646 -499.081646 -107.671265 8738385.000000 4.000000 3.000000 -726526.125000 0.000000 
-2843.000527 -862.694316 -605.109192 549564.000000 1.000000 1.000000 -727511.125000 0.000000 
-3061.361611 -321.514263 -1063.085403 8350750.000000 1.000000 1.000000 -726583.937500 4.000000 
-2847.298379 -848.073223 -260.811584 549609.000000 1.000000 1.000000 -727511.125000 0.000000 
-2842.991250 -848.954204 -605.183105 549610.000000 1.000000 1.000000 -727511.125000 0.000000 
-2838.662637 -849.840374 -950.529800 549611.000000 1.000000 1.000000 -727511.125000 0.000000 
-2953.071816 -843.591777 -627.272705 10685110.000000 2.000000 2.000000 -726294.812500 0.000000 
-2905.331094 -896.121685 -108.248169 10294291.000000 7.000000 3.000000 -726332.125000 0.000000 
-3178.755410 -321.614116 -1051.059303 7768574.000000 1.000000 1.000000 -726678.375000 2.000000 
-2847.285684 -820.549907 -260.723389 549701.000000 1.000000 1.000000 -727511.125000 0.000000 
-2844.323281 -634.214214 -191.913879 10097779.000000 7.000000 7.000000 -726352.562500 0.000000 
-2838.655313 -822.342021 -950.921906 549703.000000 1.000000 1.000000 -727511.125000 0.000000 
-3197.286904 -1070.763408 -1033.757797 10101418.000000 5.000000 5.000000 -726352.000000 0.000000 
-2955.735391 -830.704875 -839.156311 10489611.000000 2.000000 2.000000 -726312.812500 0.000000 
-2838.649941 -808.578899 -951.120697 549749.000000 1.000000 1.000000 -727511.062500 0.000000 
-3198.299111 -598.814800 -1055.075104 9516068.000000 5.000000 2.000000 -726421.187500 0.000000 
-2950.150918 -987.873027 -432.007019 9126122.000000 6.000000 5.000000 -726471.812500 0.000000 
-2950.375039 -745.059795 -390.976013 9903890.000000 3.000000 2.000000 -726374.375000 0.000000 
-3197.993936 -1360.646404 -1007.650894 10883694.000000 3.000000 2.000000 -726270.187500 0.000000 
-2842.964395 -780.104595 -605.570007 549840.000000 1.000000 1.000000 -727511.062500 0.000000 
-2838.640664 -781.022808 -951.524200 549841.000000 1.000000 1.000000 -727511.062500 0.000000 
-3012.864541 -744.305095 -107.616699 7960572.000000 7.000000 6.000000 -726645.187500 0.000000 
-2712.060586 -321.741313 -1024.514503 10681800.000000 2.000000 2.000000 -726295.375000 0.000000 
-2838.629434 -767.231670 -951.728302 549887.000000 1.000000 1.000000 -727511.062500 0.000000 
-2847.277871 -751.564922 -260.508118 549931.000000 1.000000 1.000000 -727511.062500 0.000000 
-2954.127969 -963.308818 -662.653503 10294800.000000 3.000000 1.000000 -726332.062500 0.000000 
-2908.675820 -627.066143 -108.005737 7765578.000000 7.000000 4.000000 -726679.000000 0.000000 
-2971.305215 -942.218120 -107.826904 9320654.000000 7.000000 5.000000 -726446.250000 0.000000 
-2955.002969 -872.312603 -708.001892 9904352.000000 5.000000 1.000000 -726374.312500 0.000000 
-3197.629189 -889.501323 -1041.835999 9905964.000000 5.000000 4.000000 -726374.000000 0.000000 
-2847.265664 -723.903728 -260.423828 550023.000000 1.000000 1.000000 -727511.062500 0.000000 
-2950.977090 -1077.038494 -435.670288 10490529.000000 1.000000 1.000000 -726312.687500 0.000000 
-2838.610391 -725.794902 -952.353500 550025.000000 1.000000 1.000000 -727511.062500 0.000000 
-3197.744424 -479.575176 -1041.725899 10294250.000000 2.000000 2.000000 -726332.125000 0.000000 
-2938.528848 -623.138042 -875.729401 10098289.000000 1.000000 1.000000 -726352.500000 1.000000 
-2842.684121 -735.988018 -594.705627 7959379.000000 5.000000 2.000000 -726645.375000 0.000000 
-2888.020547 -321.502056 -1065.569298 8543122.000000 1.000000 1.000000 -726555.687500 5.000000 
-2952.687539 -971.310894 -549.213928 9709817.000000 5.000000 2.000000 -726396.625000 0.000000 
-3197.958779 -535.621440 -1058.819504 9321718.000000 5.000000 3.000000 -726446.062500 0.000000 
-2841.524453 -890.950603 -743.298889 8153500.000000 5.000000 4.000000 -726614.375000 0.000000 
-2842.945840 -683.294170 -606.159302 550162.000000 1.000000 1.000000 -727511.000000 0.000000 
-2838.663613 -684.247905 -953.003006 550163.000000 1.000000 1.000000 -727511.000000 0.000000 
-2950.750527 -647.314678 -478.264404 9319920.000000 5.000000 5.000000 -726446.437500 0.000000 
-2842.991250 -669.410625 -606.250427 550208.000000 1.000000 1.000000 -727510.937500 0.000000 
-3198.017129 -647.540508 -1021.078003 10880934.000000 2.000000 1.000000 -726271.000000 0.000000 
-2948.921426 -658.100200 -107.180542 10488871.000000 7.000000 7.000000 -726312.937500 0.000000 
-2842.995645 -655.527324 -606.340576 550254.000000 1.000000 1.000000 -727510.937500 0.000000 
-2838.646035 -656.512126 -953.440903 550255.000000 1.000000 1.000000 -727510.937500 0.000000 
-2952.739297 -823.198894 -610.710327 9125939.000000 6.000000 4.000000 -726471.875000 0.000000 
-3198.290811 -450.223369 -1058.648697 9515700.000000 5.000000 2.000000 -726421.312500 0.000000 
-2838.642617 -642.626873 -953.663406 550301.000000 1.000000 1.000000 -727510.937500 0.000000 
-2842.924355 -627.750347 -606.520081 550346.000000 1.000000 1.000000 -727510.937500 0.000000 
-2838.628945 -628.733867 -953.886795 550347.000000 1.000000 1.000000 -727510.937500 0.000000 
-2948.256387 -791.932109 -235.360474 10684878.000000 1.000000 1.000000 -726294.875000 0.000000 
-2698.216348 -321.538799 -1064.991203 8347530.000000 1.000000 1.000000 -726584.500000 5.000000 
-2939.533730 -1121.039470 -900.293198 746032.000000 7.000000 3.000000 -727470.125000 0.000000 
-2945.636758 -321.617900 -1054.005997 7766964.000000 1.000000 1.000000 -726678.750000 2.000000 
-2876.366250 -629.920146 -328.334717 8154325.000000 1.000000 1.000000 -726614.250000 3.000000 
-3197.759805 -425.772197 -1042.826103 10294020.000000 2.000000 2.000000 -726332.125000 0.000000 
-2950.754922 -1118.589824 -901.744202 746032.000000 7.000000 7.000000 -727470.125000 0.000000 
-3198.043252 -1156.290508 -1011.602203 10882958.000000 2.000000 1.000000 -726270.312500 0.000000 
-3006.853799 -498.002056 -108.631592 8737971.000000 6.000000 1.000000 -726526.187500 0.000000 
-2919.034707 -1112.654399 -229.572815 746076.000000 7.000000 3.000000 -727470.062500 0.000000 
-2922.482949 -1111.896404 -229.750427 746076.000000 7.000000 4.000000 -727470.062500 0.000000 
-2809.756875 -321.733013 -1026.318298 10682214.000000 2.000000 2.000000 -726295.312500 0.000000 
-2929.265664 -1110.405498 -230.099792 746076.000000 7.000000 6.000000 -727470.062500 0.000000 
-2930.198770 -1110.200481 -230.147827 746076.000000 7.000000 7.000000 -727470.062500 0.000000 
-2895.159707 -1117.745891 -560.469910 746077.000000 7.000000 1.000000 -727470.062500 0.000000 
-2953.776406 -920.391887 -719.047913 9709680.000000 5.000000 5.000000 -726396.687500 0.000000 
-2947.679727 -1015.734417 -204.050476 9709907.000000 5.000000 4.000000 -726396.625000 0.000000 
-2902.927285 -1116.038372 -561.171326 746077.000000 7.000000 4.000000 -727470.062500 0.000000 
-2952.769082 -1010.561870 -584.960388 9126169.000000 6.000000 3.000000 -726471.812500 0.000000 
-2993.797402 -693.084880 -107.548950 10489239.000000 7.000000 6.000000 -726312.875000 0.000000 
-2953.104531 -707.630474 -582.893799 9709035.000000 4.000000 2.000000 -726396.750000 0.000000 
-2843.251504 -848.747295 -605.683594 8347987.000000 6.000000 4.000000 -726584.437500 0.000000 
-2876.564004 -1121.677715 -892.411011 746078.000000 7.000000 2.000000 -727470.062500 0.000000 
-3003.614297 -1024.044292 -108.719482 8543392.000000 7.000000 1.000000 -726555.687500 0.000000 
-2883.303262 -1120.196086 -893.282593 746078.000000 7.000000 4.000000 -727470.062500 0.000000 
-2887.016152 -1119.379802 -893.762909 746078.000000 7.000000 5.000000 -727470.062500 0.000000 
-3197.808389 -510.246440 -1023.532898 10880336.000000 1.000000 1.000000 -726271.062500 0.000000 
-2890.973184 -1118.509807 -894.274704 746078.000000 7.000000 7.000000 -727470.062500 0.000000 
-2703.923867 -321.467144 -1017.535995 10877484.000000 2.000000 1.000000 -726271.625000 0.000000 
-2856.402383 -1113.335796 -226.400330 746122.000000 7.000000 2.000000 -727470.062500 0.000000 
-2885.201699 -581.571514 -188.862976 8154508.000000 1.000000 1.000000 -726614.250000 3.000000 
-2774.452676 -321.488384 -1065.364998 8929706.000000 1.000000 1.000000 -726499.000000 5.000000 
-2866.748574 -1111.045696 -226.933411 746122.000000 7.000000 5.000000 -727470.062500 0.000000 
-2845.036660 -633.451641 -432.353882 7765120.000000 3.000000 2.000000 -726679.062500 0.000000 
-3198.364785 -1218.554485 -1030.465897 10101878.000000 5.000000 2.000000 -726351.875000 0.000000 
-2843.759316 -1115.978801 -555.985596 746123.000000 4.000000 1.000000 -727470.062500 0.000000 
-2847.439980 -1115.163982 -556.317993 746123.000000 4.000000 2.000000 -727470.062500 0.000000 
-3198.385537 -1307.171093 -1014.266495 10687964.000000 3.000000 1.000000 -726294.312500 0.000000 
-2597.560586 -1331.196300 -1036.900902 7956346.000000 5.000000 2.000000 -726646.000000 0.000000 
-3064.765908 -752.279705 -107.179688 10489837.000000 7.000000 7.000000 -726312.812500 0.000000 
-2898.321816 -714.254009 -131.684326 9514084.000000 5.000000 2.000000 -726421.562500 0.000000 
-2841.989297 -783.359905 -729.031708 7764616.000000 5.000000 5.000000 -726679.125000 0.000000 
-2682.975137 -321.541606 -1065.051201 8347392.000000 1.000000 1.000000 -726584.500000 5.000000 
-2847.725137 -1089.087017 -226.063416 746214.000000 1.000000 1.000000 -727470.062500 0.000000 
-2860.931191 -623.049785 -885.067505 9902881.000000 1.000000 1.000000 -726374.437500 1.000000 
-2949.464883 -1109.507427 -381.343689 9515420.000000 5.000000 5.000000 -726421.375000 0.000000 
-2838.750039 -912.381877 -879.962097 7764203.000000 5.000000 1.000000 -726679.187500 0.000000 
-2948.587930 -1070.843730 -219.980225 9515327.000000 5.000000 2.000000 -726421.375000 0.000000 
-2839.441445 -1077.549785 -888.669098 746262.000000 1.000000 1.000000 -727470.062500 0.000000 
-2950.231973 -1107.149211 -381.784485 9515420.000000 5.000000 3.000000 -726421.375000 0.000000 
-3198.004922 -836.035991 -1029.164299 10490854.000000 2.000000 1.000000 -726312.625000 0.000000 
-2598.334023 -956.833110 -1049.500801 8345966.000000 7.000000 5.000000 -726584.750000 0.000000 
-3173.289102 -321.521953 -1061.538696 9515148.000000 1.000000 1.000000 -726421.375000 4.000000 
-2843.563516 -1050.566814 -556.780090 746353.000000 1.000000 1.000000 -727470.062500 0.000000 
-2898.002969 -786.784099 -126.568176 10293831.000000 2.000000 1.000000 -726332.187500 0.000000 
-2847.701211 -1036.652324 -226.294922 746398.000000 1.000000 1.000000 -727470.062500 0.000000 
-2953.132852 -1074.367229 -632.290710 10490530.000000 2.000000 2.000000 -726312.687500 0.000000 
-3198.740762 -1351.964885 -1031.175400 9907252.000000 5.000000 1.000000 -726373.750000 0.000000 
-3197.667031 -506.645366 -1057.288597 9515838.000000 5.000000 4.000000 -726421.250000 0.000000 
-2843.553750 -1024.327373 -557.116821 746445.000000 1.000000 1.000000 -727470.062500 0.000000 
-2839.417031 -1025.131572 -889.767395 746446.000000 1.000000 1.000000 -727470.062500 0.000000 
-2953.818887 -666.409771 -687.033691 10293650.000000 2.000000 2.000000 -726332.187500 0.000000 
-3198.302773 -498.959941 -1050.692001 9904676.000000 4.000000 2.000000 -726374.250000 0.000000 
-2839.414590 -1012.004619 -890.049011 746492.000000 1.000000 1.000000 -727470.062500 0.000000 
-2847.690957 -997.234417 -226.479919 746536.000000 1.000000 1.000000 -727470.062500 0.000000 
