ply
format ascii 1.0
comment Created by CloudCompare v2.12 alpha
comment Created 6/8/2021 9:02 PM
obj_info Generated by CloudCompare!
element vertex 453
property double x
property double y
property double z
property float scalar_fullwaveIndex
property float scalar_NumberOfReturns
property float scalar_ReturnNumber
property float scalar_GpsTime
property float scalar_Intensity
property float scalar_Original_cloud_index
end_header
3140.926719 -615.095562 -1000.084702 8545772.000000 1.000000 1.000000 -784385.375000 0.000000 1.000000 
-2693.852578 -321.452861 -1054.637604 13053468.000000 2.000000 1.000000 -783750.875000 0.000000 2.000000 
-2838.807168 -894.865276 -849.036407 10394797.000000 7.000000 1.000000 -784128.625000 0.000000 2.000000 
3143.901328 -627.328716 -531.905518 8545840.000000 6.000000 4.000000 -784385.312500 0.000000 1.000000 
-2598.095254 -525.198345 -1004.554901 9505588.000000 7.000000 7.000000 -784257.312500 0.000000 2.000000 
-2942.803262 -321.448101 -1141.122200 12759820.000000 3.000000 2.000000 -783784.625000 0.000000 2.000000 
-2957.991738 -692.376689 -995.432205 13354886.000000 5.000000 3.000000 -783717.187500 0.000000 2.000000 
-3196.926309 -722.489299 -1108.563099 13357267.000000 6.000000 6.000000 -783716.750000 0.000000 2.000000 
-3197.483682 -355.374248 -1121.433500 12467361.000000 7.000000 7.000000 -783819.937500 0.000000 2.000000 
-3118.673867 -448.323955 -1000.235703 9511187.000000 1.000000 1.000000 -784256.312500 0.000000 2.000000 
3138.321250 -1193.371501 -999.575302 11535366.000000 7.000000 3.000000 -783960.437500 0.000000 2.000000 
-3012.958779 -1421.542995 -1118.028000 2720185.000000 7.000000 7.000000 -784749.187500 0.000000 0.000000 
-2808.392617 -599.110332 -1000.289307 13352996.000000 1.000000 1.000000 -783717.562500 0.000000 2.000000 
-2957.134316 -622.587383 -936.872192 8617382.000000 4.000000 3.000000 -784376.875000 0.000000 1.000000 
-3197.987588 -527.136455 -1134.545900 13652807.000000 7.000000 4.000000 -783681.062500 0.000000 2.000000 
-3197.986855 -997.312725 -1059.307999 12765767.000000 7.000000 6.000000 -783783.500000 0.000000 2.000000 
-2597.898477 -727.811809 -1143.930000 9208017.000000 6.000000 3.000000 -784299.437500 0.000000 2.000000 
3128.881797 -621.465923 -995.977097 8545912.000000 5.000000 3.000000 -784385.312500 0.000000 1.000000 
3136.040000 -606.052227 -999.240402 11831046.000000 7.000000 2.000000 -783921.562500 0.000000 2.000000 
-2870.173379 -321.111187 -1007.527100 12463160.000000 3.000000 1.000000 -783820.937500 0.000000 2.000000 
3060.027305 -620.286602 -940.231400 14524221.000000 7.000000 1.000000 -783601.687500 0.000000 2.000000 
3000.538047 -321.219829 -1036.912903 10634960.000000 4.000000 1.000000 -784095.187500 0.000000 2.000000 
3193.796836 -463.578838 -999.361404 10336620.000000 6.000000 2.000000 -784140.312500 0.000000 2.000000 
-3148.819863 -656.947612 -999.942200 10694959.000000 1.000000 1.000000 -784082.750000 0.000000 2.000000 
2852.163047 -518.369243 -999.877106 10935329.000000 7.000000 4.000000 -784049.000000 0.000000 2.000000 
3123.157187 -624.836040 -748.676086 8545981.000000 5.000000 4.000000 -784385.312500 0.000000 1.000000 
3359.258750 -534.788188 -999.188797 12129035.000000 7.000000 2.000000 -783883.500000 0.000000 2.000000 
2802.301719 -798.213298 -1044.217796 13627453.000000 1.000000 1.000000 -783686.687500 0.000000 2.000000 
3119.715781 -621.382305 -988.902695 8545982.000000 5.000000 2.000000 -784385.312500 0.000000 1.000000 
-2861.959512 -322.822856 -999.046097 14540963.000000 3.000000 1.000000 -783598.875000 0.000000 2.000000 
2869.248984 -1245.247600 -1000.408707 12732014.000000 7.000000 5.000000 -783789.875000 0.000000 2.000000 
-2596.931680 -1248.350109 -1081.450699 8908415.000000 5.000000 1.000000 -784342.500000 0.000000 2.000000 
-2627.646035 -1420.174602 -1137.404100 2720922.000000 7.000000 7.000000 -784749.000000 0.000000 0.000000 
-3093.201211 -1161.109386 -1000.226105 3315473.000000 1.000000 1.000000 -784709.125000 0.000000 0.000000 
-3196.963174 -1020.774028 -1017.143707 14250043.000000 6.000000 6.000000 -783622.687500 0.000000 2.000000 
-2838.565469 -737.038188 -894.396301 10395288.000000 7.000000 3.000000 -784128.500000 0.000000 2.000000 
-2955.868691 -1042.908794 -776.008789 12171046.000000 7.000000 3.000000 -783875.062500 0.000000 2.000000 
-2597.937051 -662.043926 -1104.287899 8911637.000000 7.000000 4.000000 -784341.937500 0.000000 2.000000 
3267.126914 -530.337139 -1001.828796 14523521.000000 7.000000 7.000000 -783601.812500 0.000000 2.000000 
2819.548789 -937.005779 -999.920807 10341380.000000 5.000000 3.000000 -784139.500000 0.000000 2.000000 
3342.641562 -322.371196 -1035.992401 13324843.000000 7.000000 7.000000 -783723.312500 0.000000 2.000000 
3104.792930 -320.201763 -1066.382301 10933089.000000 7.000000 1.000000 -784049.375000 0.000000 2.000000 
-2954.342813 -1134.107219 -1001.290695 1733389.000000 7.000000 7.000000 -784811.500000 0.000000 0.000000 
3104.096641 -623.849346 -734.096588 8546121.000000 4.000000 1.000000 -784385.250000 0.000000 1.000000 
-2596.992715 -1394.250103 -1136.450100 2919091.000000 5.000000 1.000000 -784735.875000 0.000000 0.000000 
-2953.523477 -803.713909 -565.580017 12170346.000000 7.000000 1.000000 -783875.250000 0.000000 2.000000 
-2844.778359 -648.576213 -498.431396 10986717.000000 7.000000 7.000000 -784038.312500 0.000000 2.000000 
-2841.751016 -727.261821 -695.202393 10395357.000000 7.000000 5.000000 -784128.500000 0.000000 2.000000 
3106.387656 -628.041729 -503.480896 10934976.000000 7.000000 5.000000 -784049.062500 0.000000 2.000000 
3259.790000 -369.050396 -998.650406 11829366.000000 7.000000 1.000000 -783921.812500 0.000000 2.000000 
3080.063437 -624.422344 -710.158600 13326802.000000 7.000000 4.000000 -783723.062500 0.000000 2.000000 
-2650.399941 -499.791484 -999.947296 10393750.000000 1.000000 1.000000 -784128.750000 0.000000 2.000000 
-3074.036660 -662.103618 -999.929306 12763038.000000 1.000000 1.000000 -783784.062500 0.000000 2.000000 
-2923.437051 -1375.422008 -1001.735703 547782.000000 7.000000 7.000000 -784871.937500 0.000000 0.000000 
2857.285117 -1242.331493 -998.276306 13928592.000000 7.000000 2.000000 -783654.937500 0.000000 2.000000 
3123.254844 -627.362041 -510.709290 10934906.000000 6.000000 3.000000 -784049.062500 0.000000 2.000000 
3096.554648 -625.389751 -729.824799 8546191.000000 5.000000 4.000000 -784385.250000 0.000000 1.000000 
-2901.659707 -629.647686 -375.415771 13948131.000000 1.000000 1.000000 -783651.437500 0.000000 2.000000 
2994.659141 -415.079448 -999.299301 11232758.000000 7.000000 2.000000 -784004.687500 0.000000 2.000000 
3266.336875 -438.589946 -1000.519196 10634609.000000 6.000000 5.000000 -784095.250000 0.000000 2.000000 
-2695.009316 -321.728862 -1013.083603 11870051.000000 1.000000 1.000000 -783913.937500 0.000000 2.000000 
-2764.175332 -551.320781 -999.985397 10099329.000000 1.000000 1.000000 -784170.687500 0.000000 2.000000 
-3154.456338 -910.299480 -999.590805 13951774.000000 3.000000 1.000000 -783650.750000 0.000000 2.000000 
3086.247031 -624.014751 -721.320587 8546261.000000 4.000000 1.000000 -784385.250000 0.000000 1.000000 
3087.065391 -624.872539 -722.572601 8546261.000000 4.000000 2.000000 -784385.250000 0.000000 1.000000 
-2687.544473 -783.957317 -999.939301 10984619.000000 1.000000 1.000000 -784038.625000 0.000000 2.000000 
-2956.787148 -687.059429 -941.335403 14246333.000000 4.000000 4.000000 -783623.375000 0.000000 2.000000 
-2902.965371 -1270.817607 -1000.897903 548150.000000 7.000000 6.000000 -784871.875000 0.000000 0.000000 
-2611.313027 -1077.764507 -1000.238907 11871307.000000 1.000000 1.000000 -783913.750000 0.000000 2.000000 
-3193.847207 -321.790142 -1138.016800 8621443.000000 6.000000 4.000000 -784376.125000 0.000000 1.000000 
3391.470664 -538.868877 -1000.653305 11232127.000000 7.000000 6.000000 -784004.875000 0.000000 2.000000 
-2598.300332 -497.843486 -1090.648399 10097580.000000 7.000000 7.000000 -784170.937500 0.000000 2.000000 
-2742.501992 -321.363262 -1092.324200 9211868.000000 2.000000 1.000000 -784298.750000 0.000000 2.000000 
-2732.720742 -671.520183 -1000.030106 10394239.000000 1.000000 1.000000 -784128.687500 0.000000 2.000000 
-2792.632363 -1273.923412 -998.804092 1930546.000000 5.000000 1.000000 -784800.500000 0.000000 0.000000 
-2597.893105 -1005.141277 -1132.127899 8909676.000000 6.000000 3.000000 -784342.312500 0.000000 2.000000 
-3199.079873 -1161.435314 -1046.134003 13359505.000000 7.000000 1.000000 -783716.250000 0.000000 2.000000 
3075.220664 -621.961772 -955.517502 8546332.000000 4.000000 2.000000 -784385.250000 0.000000 1.000000 
3075.577109 -622.335796 -956.090698 8546332.000000 4.000000 3.000000 -784385.250000 0.000000 1.000000 
-2806.262734 -1422.105297 -1092.858501 2127427.000000 7.000000 5.000000 -784787.500000 0.000000 0.000000 
-3196.851357 -1064.358379 -1018.805801 12469807.000000 7.000000 7.000000 -783819.000000 0.000000 2.000000 
-2991.032266 -468.904033 -1000.007294 13650636.000000 1.000000 1.000000 -783681.500000 0.000000 2.000000 
2968.151328 -859.282390 -1001.150604 10638459.000000 5.000000 5.000000 -784094.437500 0.000000 2.000000 
-2870.689004 -347.276958 -1000.360596 14243464.000000 2.000000 2.000000 -783623.937500 0.000000 2.000000 
-3046.456582 -562.947368 -1000.217300 11875300.000000 1.000000 1.000000 -783913.062500 0.000000 2.000000 
-2954.599160 -738.128521 -808.073212 13652034.000000 6.000000 6.000000 -783681.250000 0.000000 2.000000 
3065.512656 -621.147441 -947.504395 8546402.000000 4.000000 1.000000 -784385.250000 0.000000 1.000000 
-3033.290078 -321.768901 -1060.699997 9807569.000000 2.000000 2.000000 -784213.062500 0.000000 2.000000 
-2876.094277 -352.086284 -999.897293 14243534.000000 3.000000 1.000000 -783623.937500 0.000000 2.000000 
3047.090781 -859.630413 -603.327393 10638107.000000 1.000000 1.000000 -784094.500000 0.000000 2.000000 
-2688.060098 -543.686260 -999.912903 14541452.000000 5.000000 3.000000 -783598.750000 0.000000 2.000000 
2945.006797 -494.174541 -1000.292892 8546403.000000 2.000000 2.000000 -784385.250000 0.000000 1.000000 
-2953.536660 -660.819316 -728.451508 11874318.000000 7.000000 7.000000 -783913.250000 0.000000 2.000000 
-2992.263711 -321.499736 -1116.824100 12760380.000000 3.000000 2.000000 -783784.562500 0.000000 2.000000 
3233.712852 -1229.097515 -998.466003 12431924.000000 7.000000 3.000000 -783827.062500 0.000000 2.000000 
3329.337852 -353.706646 -1002.086304 14522681.000000 7.000000 7.000000 -783601.875000 0.000000 2.000000 
2802.957969 -1063.544170 -1000.988800 10640419.000000 2.000000 2.000000 -784094.062500 0.000000 2.000000 
-3198.210732 -771.656292 -1148.800100 13357547.000000 4.000000 2.000000 -783716.687500 0.000000 2.000000 
-2838.561563 -875.159587 -951.095306 10690688.000000 7.000000 5.000000 -784083.500000 0.000000 2.000000 
-3197.761514 -819.156902 -1100.812401 14248854.000000 7.000000 5.000000 -783622.937500 0.000000 2.000000 
-3078.499307 -1217.562908 -1000.323196 13061935.000000 1.000000 1.000000 -783749.312500 0.000000 2.000000 
-2954.711953 -829.949626 -799.526489 12762546.000000 7.000000 7.000000 -783784.187500 0.000000 2.000000 
3331.562461 -600.426860 -1001.508499 12129455.000000 7.000000 7.000000 -783883.437500 0.000000 2.000000 
3147.943320 -625.050396 -768.682312 11831115.000000 7.000000 6.000000 -783921.562500 0.000000 2.000000 
-2838.998574 -769.083293 -994.855804 10986509.000000 7.000000 7.000000 -784038.375000 0.000000 2.000000 
-2840.153359 -1253.581615 -998.517807 943061.000000 7.000000 1.000000 -784852.562500 0.000000 0.000000 
-2958.045938 -1072.458904 -933.185806 11875157.000000 7.000000 3.000000 -783913.062500 0.000000 2.000000 
3046.297812 -815.152080 -690.106598 11234926.000000 2.000000 2.000000 -784004.312500 0.000000 2.000000 
2868.277305 -552.963359 -1000.837006 13027694.000000 7.000000 6.000000 -783755.687500 0.000000 2.000000 
-3198.522012 -964.340618 -1128.622499 12469528.000000 7.000000 3.000000 -783819.125000 0.000000 2.000000 
-5898.610391 -893.105693 211.024658 12500670.000000 6.000000 4.000000 -783812.125000 0.000000 2.000000 
2935.615195 -502.340190 -999.830093 8546543.000000 2.000000 1.000000 -784385.187500 0.000000 1.000000 
-3106.834512 -601.912456 -1000.009705 8321423.000000 1.000000 1.000000 -784409.250000 0.000000 1.000000 
-5898.168252 -911.903179 196.301636 11610688.000000 2.000000 2.000000 -783946.000000 0.000000 2.000000 
-3198.502480 -733.974407 -1020.370407 12764718.000000 7.000000 3.000000 -783783.687500 0.000000 2.000000 
3045.807578 -628.428447 -695.664795 8546611.000000 6.000000 3.000000 -784385.187500 0.000000 1.000000 
2837.299766 -322.652690 -1098.175201 13325824.000000 7.000000 7.000000 -783723.187500 0.000000 2.000000 
2873.567344 -541.485942 -1000.839798 13027624.000000 7.000000 6.000000 -783755.687500 0.000000 2.000000 
3046.851523 -629.539775 -697.275391 8546611.000000 6.000000 6.000000 -784385.187500 0.000000 1.000000 
-2956.771035 -843.299785 -826.469604 14247312.000000 5.000000 1.000000 -783623.250000 0.000000 2.000000 
-2838.488809 -880.740581 -974.282806 8912335.000000 6.000000 4.000000 -784341.812500 0.000000 2.000000 
-2764.868691 -321.431987 -1105.290501 9212078.000000 2.000000 1.000000 -784298.687500 0.000000 2.000000 
2890.644492 -320.172466 -1144.989300 11232549.000000 7.000000 1.000000 -784004.750000 0.000000 2.000000 
-2956.522012 -670.769329 -885.949585 11578919.000000 7.000000 6.000000 -783952.187500 0.000000 2.000000 
-2828.703652 -399.839214 -1000.285294 9212147.000000 1.000000 1.000000 -784298.687500 0.000000 2.000000 
3045.777305 -928.847393 -707.697205 12131974.000000 1.000000 1.000000 -783883.062500 0.000000 2.000000 
-2956.623574 -665.458416 -929.087296 14246193.000000 5.000000 4.000000 -783623.437500 0.000000 2.000000 
-2671.876504 -1347.972515 -1001.083298 2127979.000000 5.000000 5.000000 -784787.312500 0.000000 0.000000 
-2838.786660 -800.192180 -994.517303 9802947.000000 7.000000 7.000000 -784213.875000 0.000000 2.000000 
-2597.944863 -1297.907695 -1041.304100 10094916.000000 7.000000 5.000000 -784171.437500 0.000000 2.000000 
2802.288047 -809.002483 -1038.743301 14226092.000000 1.000000 1.000000 -783627.125000 0.000000 2.000000 
-2838.888223 -632.949565 -989.456802 10395639.000000 7.000000 7.000000 -784128.437500 0.000000 2.000000 
-3198.053994 -627.265728 -1110.078300 12172800.000000 7.000000 6.000000 -783874.687500 0.000000 2.000000 
-3196.921670 -1082.032329 -1116.750401 11877888.000000 7.000000 7.000000 -783912.562500 0.000000 2.000000 
3042.443320 -634.401958 -940.912201 8546682.000000 7.000000 3.000000 -784385.187500 0.000000 1.000000 
2923.699180 -408.371807 -999.331497 10934349.000000 6.000000 2.000000 -784049.187500 0.000000 2.000000 
3042.966758 -634.960796 -941.762894 8546682.000000 7.000000 5.000000 -784385.187500 0.000000 1.000000 
-3174.241494 -399.232646 -1000.271896 9808548.000000 2.000000 2.000000 -784212.875000 0.000000 2.000000 
3043.789023 -635.837993 -943.098099 8546682.000000 7.000000 7.000000 -784385.187500 0.000000 1.000000 
-2956.843789 -983.045024 -904.269806 14248152.000000 5.000000 2.000000 -783623.062500 0.000000 2.000000 
3091.557578 -346.249858 -999.986893 12427795.000000 7.000000 4.000000 -783827.750000 0.000000 2.000000 
-2928.862344 -511.464946 -999.853897 8915346.000000 1.000000 1.000000 -784341.250000 0.000000 2.000000 
-2840.795938 -1055.709087 -813.201294 9801825.000000 7.000000 7.000000 -784214.062500 0.000000 2.000000 
3045.866172 -647.421672 -710.471008 8546751.000000 6.000000 4.000000 -784385.187500 0.000000 1.000000 
-2954.202676 -664.611370 -714.043091 14543831.000000 4.000000 3.000000 -783598.312500 0.000000 2.000000 
-2954.517129 -945.506694 -690.313599 12170766.000000 7.000000 4.000000 -783875.125000 0.000000 2.000000 
3041.662070 -643.035076 -947.387894 8546752.000000 6.000000 1.000000 -784385.187500 0.000000 1.000000 
3042.347617 -643.769329 -948.503906 8546752.000000 6.000000 2.000000 -784385.187500 0.000000 1.000000 
-2935.593789 -1421.542003 -1046.704597 2720323.000000 7.000000 7.000000 -784749.187500 0.000000 0.000000 
-2955.941445 -905.480571 -862.101013 12762896.000000 7.000000 5.000000 -783784.125000 0.000000 2.000000 
3192.696250 -547.237651 -999.939804 10635589.000000 6.000000 3.000000 -784095.000000 0.000000 2.000000 
-2596.998574 -386.761455 -1117.107201 8913388.000000 7.000000 1.000000 -784341.625000 0.000000 2.000000 
2984.545859 -1034.568096 -999.545502 12730684.000000 7.000000 3.000000 -783790.125000 0.000000 2.000000 
-2840.695840 -774.967083 -778.039093 9803086.000000 7.000000 4.000000 -784213.875000 0.000000 2.000000 
-2883.305703 -1288.718792 -999.223099 1337788.000000 7.000000 2.000000 -784833.250000 0.000000 0.000000 
2864.318320 -503.928569 -1001.152893 10935189.000000 5.000000 5.000000 -784049.000000 0.000000 2.000000 
-3106.821816 -321.857158 -1034.762299 13057669.000000 2.000000 2.000000 -783750.125000 0.000000 2.000000 
-3198.645547 -465.389019 -1138.389500 12172381.000000 7.000000 3.000000 -783874.812500 0.000000 2.000000 
3046.086875 -657.168682 -718.220306 8546821.000000 6.000000 5.000000 -784385.187500 0.000000 1.000000 
-2837.650430 -1009.923687 -955.125595 10394447.000000 7.000000 2.000000 -784128.687500 0.000000 2.000000 
-2968.338418 -470.381816 -1000.245407 10102059.000000 1.000000 1.000000 -784170.187500 0.000000 2.000000 
-3175.600625 -766.691387 -999.938599 11877259.000000 1.000000 1.000000 -783912.687500 0.000000 2.000000 
-2842.268105 -778.532207 -594.811096 9803085.000000 7.000000 2.000000 -784213.875000 0.000000 2.000000 
-2839.661660 -806.914409 -871.250305 10099117.000000 7.000000 5.000000 -784170.687500 0.000000 2.000000 
-2920.281289 -1375.994609 -999.972702 547782.000000 7.000000 4.000000 -784871.937500 0.000000 0.000000 
-2654.211953 -596.099956 -1000.120605 11279600.000000 1.000000 1.000000 -783995.062500 0.000000 2.000000 
-2598.388223 -1087.039226 -1096.439400 2327160.000000 4.000000 4.000000 -784774.625000 0.000000 0.000000 
2977.350547 -982.063579 -1000.275696 10937568.000000 7.000000 5.000000 -784048.625000 0.000000 2.000000 
2802.227500 -1173.888805 -1045.654198 10641049.000000 5.000000 4.000000 -784093.937500 0.000000 2.000000 
-2604.227578 -1121.564617 -999.889404 8909115.000000 2.000000 1.000000 -784342.375000 0.000000 2.000000 
-2759.277383 -1222.809612 -999.827805 3117857.000000 1.000000 1.000000 -784722.562500 0.000000 0.000000 
-3183.954141 -402.169658 -1000.208206 9215226.000000 1.000000 1.000000 -784298.125000 0.000000 2.000000 
-2891.844766 -357.117290 -999.044998 14541383.000000 4.000000 1.000000 -783598.750000 0.000000 2.000000 
3126.722617 -626.626934 -462.107117 12728302.000000 7.000000 1.000000 -783790.500000 0.000000 2.000000 
-2654.031289 -393.091655 -1000.216095 10098700.000000 1.000000 1.000000 -784170.750000 0.000000 2.000000 
-2905.734902 -1310.967998 -998.380402 548012.000000 7.000000 1.000000 -784871.875000 0.000000 0.000000 
2883.843711 -960.055278 -998.853302 10639439.000000 6.000000 1.000000 -784094.250000 0.000000 2.000000 
-2838.617715 -799.616924 -999.122894 8615212.000000 6.000000 6.000000 -784377.250000 0.000000 1.000000 
-3157.060830 -321.390483 -1028.692398 8918426.000000 5.000000 2.000000 -784340.687500 0.000000 2.000000 
-2955.803750 -656.514507 -753.503601 13651544.000000 5.000000 1.000000 -783681.375000 0.000000 2.000000 
-2957.679727 -872.538188 -973.826096 13059206.000000 7.000000 4.000000 -783749.812500 0.000000 2.000000 
-2680.508828 -1382.277599 -1000.551193 2127795.000000 5.000000 4.000000 -784787.375000 0.000000 0.000000 
3001.550742 -321.881206 -1037.716904 10634960.000000 4.000000 3.000000 -784095.187500 0.000000 2.000000 
-2842.468789 -622.835552 -914.827805 12464278.000000 2.000000 2.000000 -783820.500000 0.000000 2.000000 
-2956.412148 -974.285503 -856.221802 13059695.000000 7.000000 3.000000 -783749.750000 0.000000 2.000000 
3045.863242 -676.039775 -732.789307 8546961.000000 6.000000 5.000000 -784385.187500 0.000000 1.000000 
-2832.606973 -349.654644 -999.945801 13351597.000000 2.000000 1.000000 -783717.812500 0.000000 2.000000 
-2739.185098 -1174.737194 -1000.270706 3118225.000000 2.000000 2.000000 -784722.437500 0.000000 0.000000 
3041.802695 -671.770488 -971.065598 8546962.000000 7.000000 2.000000 -784385.125000 0.000000 1.000000 
-3050.573525 -433.592754 -1000.022705 10103179.000000 1.000000 1.000000 -784170.000000 0.000000 2.000000 
-2941.566934 -623.998760 -821.543304 12761427.000000 2.000000 2.000000 -783784.375000 0.000000 2.000000 
-2830.694375 -626.008647 -1000.194794 12168319.000000 1.000000 1.000000 -783875.562500 0.000000 2.000000 
2828.189414 -685.138225 -1001.256897 11234998.000000 6.000000 6.000000 -784004.250000 0.000000 2.000000 
-2999.820840 -322.444072 -1114.971001 14244165.000000 6.000000 6.000000 -783623.812500 0.000000 2.000000 
-3089.311318 -321.104961 -1112.287899 10104230.000000 3.000000 1.000000 -784169.750000 0.000000 2.000000 
-2843.594766 -810.309917 -572.006104 9506494.000000 5.000000 4.000000 -784257.125000 0.000000 2.000000 
2852.296836 -320.181621 -1124.270201 11232689.000000 7.000000 1.000000 -784004.687500 0.000000 2.000000 
3066.882773 -625.601909 -700.448303 10935117.000000 6.000000 4.000000 -784049.062500 0.000000 2.000000 
3045.516562 -685.265911 -739.758301 8547031.000000 6.000000 4.000000 -784385.125000 0.000000 1.000000 
-3045.931680 -321.728008 -1015.754700 12169931.000000 1.000000 1.000000 -783875.312500 0.000000 2.000000 
3046.325156 -686.142009 -741.017609 8547031.000000 6.000000 6.000000 -784385.125000 0.000000 1.000000 
-3116.576211 -562.554058 -1000.292007 13652316.000000 1.000000 1.000000 -783681.187500 0.000000 2.000000 
3041.705039 -681.253704 -978.792603 8547032.000000 7.000000 2.000000 -784385.125000 0.000000 1.000000 
3154.206992 -627.798442 -463.404175 11233455.000000 4.000000 3.000000 -784004.562500 0.000000 2.000000 
-2670.437051 -679.843486 -1000.238205 11870889.000000 1.000000 1.000000 -783913.812500 0.000000 2.000000 
-2862.485391 -623.304546 -853.178101 12760587.000000 2.000000 1.000000 -783784.500000 0.000000 2.000000 
-3199.110391 -1058.691692 -1093.209000 11877888.000000 7.000000 1.000000 -783912.562500 0.000000 2.000000 
-2768.712930 -738.377788 -1000.248199 10690129.000000 1.000000 1.000000 -784083.625000 0.000000 2.000000 
2903.739219 -531.970439 -1000.237000 8547033.000000 1.000000 1.000000 -784385.125000 0.000000 1.000000 
3044.191367 -693.457927 -745.234100 8547101.000000 6.000000 1.000000 -784385.125000 0.000000 1.000000 
-3164.080605 -709.385479 -1000.029007 12172589.000000 1.000000 1.000000 -783874.750000 0.000000 2.000000 
-2914.264199 -625.883159 -645.699310 12761146.000000 2.000000 1.000000 -783784.375000 0.000000 2.000000 
-3198.323281 -358.315288 -1059.324898 12762970.000000 7.000000 4.000000 -783784.062500 0.000000 2.000000 
-2956.604043 -1104.265483 -972.827805 14248852.000000 6.000000 6.000000 -783622.937500 0.000000 2.000000 
-2776.924355 -934.903118 -1000.221298 10689848.000000 1.000000 1.000000 -784083.625000 0.000000 2.000000 
2802.166953 -1348.892803 -1056.379402 11836086.000000 1.000000 1.000000 -783920.687500 0.000000 2.000000 
-2598.965859 -526.844341 -1006.425003 9505588.000000 7.000000 7.000000 -784257.312500 0.000000 2.000000 
-3093.781289 -500.191143 -1000.262604 13058578.000000 2.000000 2.000000 -783749.937500 0.000000 2.000000 
-2844.084512 -738.734294 -564.249512 9803295.000000 7.000000 6.000000 -784213.812500 0.000000 2.000000 
3042.445273 -691.676799 -987.928406 8547102.000000 7.000000 5.000000 -784385.125000 0.000000 1.000000 
3242.643516 -587.871562 -1000.519394 14523801.000000 7.000000 6.000000 -783601.750000 0.000000 2.000000 
-2822.172891 -1145.085918 -1001.603897 943475.000000 7.000000 7.000000 -784852.437500 0.000000 0.000000 
2898.891562 -535.885356 -999.832397 8547103.000000 2.000000 1.000000 -784385.125000 0.000000 1.000000 
-5898.389077 -1013.327617 163.766602 13388341.000000 7.000000 7.000000 -783710.312500 0.000000 2.000000 
-2884.315957 -622.136943 -943.277298 14245423.000000 4.000000 2.000000 -783623.562500 0.000000 2.000000 
-2837.686563 -732.480571 -999.986099 10099398.000000 3.000000 3.000000 -784170.687500 0.000000 2.000000 
3272.307578 -431.281597 -1001.154495 10634539.000000 5.000000 5.000000 -784095.250000 0.000000 2.000000 
2944.753867 -377.330913 -999.942200 10934069.000000 6.000000 3.000000 -784049.187500 0.000000 2.000000 
-5897.789956 -774.474224 170.217896 11017017.000000 2.000000 1.000000 -784032.250000 0.000000 2.000000 
-3197.875771 -854.504802 -1022.448502 12469178.000000 7.000000 7.000000 -783819.250000 0.000000 2.000000 
2951.145469 -1204.416790 -999.247192 11237447.000000 7.000000 2.000000 -784003.750000 0.000000 2.000000 
3115.164023 -622.372173 -944.480301 10934908.000000 7.000000 4.000000 -784049.062500 0.000000 2.000000 
-2930.980020 -1354.773693 -1000.121094 2522936.000000 4.000000 3.000000 -784762.375000 0.000000 0.000000 
-2919.806191 -575.484233 -1000.282104 9508527.000000 2.000000 2.000000 -784256.812500 0.000000 2.000000 
-3198.036904 -1125.595684 -1122.883801 13953314.000000 6.000000 3.000000 -783650.437500 0.000000 2.000000 
2851.048789 -421.634746 -998.994507 14224272.000000 7.000000 3.000000 -783627.375000 0.000000 2.000000 
-3183.125527 -955.525615 -999.865707 10398367.000000 1.000000 1.000000 -784128.000000 0.000000 2.000000 
-3198.177041 -404.077251 -1065.407799 13059139.000000 7.000000 3.000000 -783749.875000 0.000000 2.000000 
3043.998984 -712.595195 -760.113892 8547241.000000 6.000000 1.000000 -784385.125000 0.000000 1.000000 
3044.694297 -713.354595 -761.201111 8547241.000000 6.000000 2.000000 -784385.125000 0.000000 1.000000 
-2953.710488 -927.510906 -674.665985 14247801.000000 5.000000 3.000000 -783623.125000 0.000000 2.000000 
3045.225547 -713.934612 -762.031494 8547241.000000 6.000000 4.000000 -784385.125000 0.000000 1.000000 
3045.527305 -714.264812 -762.504211 8547241.000000 6.000000 5.000000 -784385.125000 0.000000 1.000000 
-3025.716104 -939.639324 -1000.286606 13060186.000000 1.000000 1.000000 -783749.625000 0.000000 2.000000 
2930.029258 -328.188335 -1000.555099 10635310.000000 5.000000 4.000000 -784095.062500 0.000000 2.000000 
-2597.641152 -531.098735 -1125.566401 10097440.000000 7.000000 4.000000 -784170.937500 0.000000 2.000000 
3042.524375 -638.408611 -988.069504 10338440.000000 1.000000 1.000000 -784140.000000 0.000000 2.000000 
2802.166953 -768.261516 -1038.787102 13627313.000000 1.000000 1.000000 -783686.750000 0.000000 2.000000 
3044.874961 -723.274822 -769.127594 8547311.000000 6.000000 3.000000 -784385.125000 0.000000 1.000000 
-2666.991738 -321.848369 -1083.301903 9803510.000000 3.000000 3.000000 -784213.812500 0.000000 2.000000 
3045.430625 -723.882915 -769.997009 8547311.000000 6.000000 5.000000 -784385.125000 0.000000 1.000000 
-2955.437051 -790.618022 -835.901611 12466237.000000 7.000000 7.000000 -783820.187500 0.000000 2.000000 
-3196.920693 -610.161235 -1106.455101 12764159.000000 7.000000 7.000000 -783783.812500 0.000000 2.000000 
-3197.742959 -1011.013713 -1045.886101 13952684.000000 5.000000 3.000000 -783650.625000 0.000000 2.000000 
-2710.149453 -566.806499 -999.025497 14541732.000000 2.000000 1.000000 -783598.687500 0.000000 2.000000 
-2953.552285 -906.429119 -724.138702 13653013.000000 4.000000 4.000000 -783681.000000 0.000000 2.000000 
3235.701133 -1230.221996 -999.529297 12431924.000000 7.000000 5.000000 -783827.062500 0.000000 2.000000 
-3197.887002 -1158.843090 -1105.834801 12470087.000000 7.000000 7.000000 -783818.937500 0.000000 2.000000 
3045.361289 -733.562480 -777.567810 8547381.000000 6.000000 5.000000 -784385.062500 0.000000 1.000000 
3198.472617 -487.829448 -998.655502 11830206.000000 7.000000 1.000000 -783921.687500 0.000000 2.000000 
3030.248008 -717.071575 -999.860306 8547382.000000 1.000000 1.000000 -784385.062500 0.000000 1.000000 
-2605.076699 -1420.186306 -1115.113499 2720968.000000 7.000000 7.000000 -784748.937500 0.000000 0.000000 
-3065.805947 -1089.329204 -999.874298 10692787.000000 1.000000 1.000000 -784083.187500 0.000000 2.000000 
3028.662070 -1137.324626 -999.562302 12133095.000000 7.000000 3.000000 -783882.875000 0.000000 2.000000 
-3197.999307 -840.132671 -1137.911400 13951705.000000 6.000000 3.000000 -783650.750000 0.000000 2.000000 
2821.997031 -496.264141 -999.524094 13625983.000000 7.000000 3.000000 -783687.312500 0.000000 2.000000 
2920.063437 -322.674419 -1007.701096 10336971.000000 4.000000 4.000000 -784140.250000 0.000000 2.000000 
-2956.153359 -700.549785 -836.531311 13058296.000000 4.000000 1.000000 -783750.000000 0.000000 2.000000 
3025.414023 -721.482708 -999.944504 8547452.000000 1.000000 1.000000 -784385.062500 0.000000 1.000000 
3223.855430 -406.504741 -1001.702698 13924182.000000 7.000000 7.000000 -783655.625000 0.000000 2.000000 
-2750.244668 -321.809917 -1097.151100 9211938.000000 2.000000 2.000000 -784298.750000 0.000000 2.000000 
-2895.828164 -622.914653 -926.012604 14543202.000000 4.000000 4.000000 -783598.437500 0.000000 2.000000 
-3047.219521 -321.662578 -1073.279297 13947156.000000 2.000000 2.000000 -783651.625000 0.000000 2.000000 
-3020.571816 -1405.410106 -1001.289200 1732147.000000 6.000000 6.000000 -784811.812500 0.000000 0.000000 
-2837.511270 -813.179424 -953.221893 8317643.000000 7.000000 1.000000 -784409.937500 0.000000 1.000000 
-2954.858926 -669.622905 -727.068909 12465747.000000 7.000000 3.000000 -783820.250000 0.000000 2.000000 
-2608.398965 -408.747539 -1000.209702 10098070.000000 1.000000 1.000000 -784170.875000 0.000000 2.000000 
3046.419883 -880.747112 -658.514893 10339908.000000 3.000000 2.000000 -784139.750000 0.000000 2.000000 
-2954.546914 -1048.384929 -781.123993 12171046.000000 7.000000 7.000000 -783875.062500 0.000000 2.000000 
2880.216758 -1107.607524 -999.603500 10938688.000000 7.000000 3.000000 -784048.375000 0.000000 2.000000 
-2597.901895 -1148.959392 -1078.265701 2326838.000000 3.000000 2.000000 -784774.750000 0.000000 0.000000 
-2956.157754 -978.677715 -869.874512 14545791.000000 4.000000 3.000000 -783598.000000 0.000000 2.000000 
-2597.553262 -1055.373210 -1026.711700 10095617.000000 7.000000 4.000000 -784171.312500 0.000000 2.000000 
-2741.718789 -416.105449 -1000.130707 10985601.000000 1.000000 1.000000 -784038.500000 0.000000 2.000000 
-2723.243203 -874.860698 -1000.007294 10393538.000000 1.000000 1.000000 -784128.812500 0.000000 2.000000 
-3187.196328 -321.370952 -1141.636400 9512658.000000 2.000000 1.000000 -784256.000000 0.000000 2.000000 
-2843.695840 -787.679180 -520.446106 9209903.000000 4.000000 2.000000 -784299.125000 0.000000 2.000000 
3102.231406 -825.468486 201.785034 8547586.000000 6.000000 4.000000 -784385.062500 0.000000 1.000000 
3191.152305 -1305.569011 -999.987701 13628922.000000 7.000000 5.000000 -783686.187500 0.000000 2.000000 
2874.222617 -527.921245 -998.485397 13027554.000000 7.000000 1.000000 -783755.687500 0.000000 2.000000 
2863.488242 -422.461284 -999.658707 10636220.000000 5.000000 2.000000 -784094.875000 0.000000 2.000000 
3043.957969 -761.465801 -798.606293 8547591.000000 7.000000 2.000000 -784385.062500 0.000000 1.000000 
-2596.926797 -358.621440 -1148.479300 10098141.000000 2.000000 1.000000 -784170.875000 0.000000 2.000000 
-2842.122598 -626.661602 -614.906189 12168457.000000 4.000000 3.000000 -783875.562500 0.000000 2.000000 
-2909.799844 -623.391338 -870.926788 9804557.000000 2.000000 2.000000 -784213.625000 0.000000 2.000000 
3045.063437 -762.691204 -800.348999 8547591.000000 7.000000 6.000000 -784385.062500 0.000000 1.000000 
-3199.025674 -1311.259288 -1146.184000 14549222.000000 6.000000 1.000000 -783597.312500 0.000000 2.000000 
2940.606406 -943.621929 -999.998795 11833496.000000 7.000000 4.000000 -783921.187500 0.000000 2.000000 
-2598.978066 -384.087749 -1115.134499 9802390.000000 7.000000 7.000000 -784213.937500 0.000000 2.000000 
-3129.387490 -321.428691 -1010.229996 8918216.000000 3.000000 2.000000 -784340.750000 0.000000 2.000000 
3049.206016 -686.790630 -444.408630 12728792.000000 1.000000 1.000000 -783790.437500 0.000000 2.000000 
3101.977500 -835.254924 195.908936 8547656.000000 5.000000 3.000000 -784385.062500 0.000000 1.000000 
-2957.329141 -934.320415 -885.721710 12763036.000000 7.000000 2.000000 -783784.062500 0.000000 2.000000 
-2865.910195 -1423.056697 -1025.343201 1929764.000000 7.000000 1.000000 -784800.750000 0.000000 0.000000 
-2618.935586 -321.855449 -1032.522697 9506989.000000 2.000000 2.000000 -784257.062500 0.000000 2.000000 
-2953.718301 -711.465312 -664.520111 12170067.000000 7.000000 6.000000 -783875.250000 0.000000 2.000000 
-2597.734902 -924.251628 -1149.674200 9503557.000000 6.000000 5.000000 -784257.687500 0.000000 2.000000 
-2597.605508 -1143.761882 -1126.962500 9502576.000000 7.000000 3.000000 -784257.875000 0.000000 2.000000 
-2793.372598 -1193.893291 -1000.293106 10097226.000000 1.000000 1.000000 -784171.000000 0.000000 2.000000 
3366.270469 -321.483501 -1037.795799 11828806.000000 7.000000 5.000000 -783921.937500 0.000000 2.000000 
3045.483359 -773.040691 -808.831909 8547661.000000 7.000000 7.000000 -784385.062500 0.000000 1.000000 
-2794.607461 -484.300273 -1000.196503 12463089.000000 1.000000 1.000000 -783821.000000 0.000000 2.000000 
-2955.149941 -976.743511 -858.607086 13059695.000000 7.000000 7.000000 -783749.750000 0.000000 2.000000 
3101.101523 -844.378276 190.770752 8547726.000000 5.000000 1.000000 -784385.062500 0.000000 1.000000 
-2597.740762 -353.782573 -1051.224297 9506569.000000 6.000000 2.000000 -784257.125000 0.000000 2.000000 
-2839.400918 -750.363079 -900.935104 8318133.000000 6.000000 4.000000 -784409.812500 0.000000 1.000000 
-2599.022012 -753.137371 -1062.851097 9800638.000000 7.000000 7.000000 -784214.250000 0.000000 2.000000 
-2597.936074 -1416.790203 -1068.621597 2523167.000000 3.000000 2.000000 -784762.312500 0.000000 0.000000 
-2839.843789 -660.545330 -825.277496 8318833.000000 6.000000 2.000000 -784409.750000 0.000000 1.000000 
3071.839805 -1296.519512 -1001.424896 11536136.000000 7.000000 7.000000 -783960.312500 0.000000 2.000000 
3044.031211 -781.339214 -814.393707 8547731.000000 7.000000 3.000000 -784385.062500 0.000000 1.000000 
-2956.146523 -927.533428 -934.133606 13653154.000000 5.000000 5.000000 -783681.000000 0.000000 2.000000 
-2957.277383 -831.853130 -941.241501 13058996.000000 7.000000 4.000000 -783749.875000 0.000000 2.000000 
3044.855430 -782.257671 -815.696503 8547731.000000 7.000000 6.000000 -784385.062500 0.000000 1.000000 
-3196.959512 -664.636394 -1034.712502 13653646.000000 5.000000 5.000000 -783680.937500 0.000000 2.000000 
-3065.649453 -494.507061 -1000.085098 9213616.000000 1.000000 1.000000 -784298.437500 0.000000 2.000000 
-2597.846230 -686.858928 -1000.617493 9800918.000000 6.000000 2.000000 -784214.187500 0.000000 2.000000 
-2838.194375 -1036.733501 -980.065201 10394377.000000 7.000000 5.000000 -784128.687500 0.000000 2.000000 
-2952.795449 -746.145122 -580.139099 14246681.000000 4.000000 2.000000 -783623.375000 0.000000 2.000000 
3101.969687 -855.479900 183.461060 8547796.000000 6.000000 3.000000 -784385.062500 0.000000 1.000000 
-3130.545938 -537.102642 -1000.257095 8619342.000000 1.000000 1.000000 -784376.500000 0.000000 1.000000 
3102.490195 -856.062419 182.820068 8547796.000000 6.000000 5.000000 -784385.062500 0.000000 1.000000 
3102.954062 -856.580913 182.249634 8547796.000000 6.000000 6.000000 -784385.062500 0.000000 1.000000 
3052.232383 -627.014995 -700.244995 13326872.000000 5.000000 5.000000 -783723.062500 0.000000 2.000000 
-2839.131875 -1039.036907 -931.682693 9505305.000000 7.000000 5.000000 -784257.375000 0.000000 2.000000 
-3096.135537 -599.694316 -999.950104 11580670.000000 1.000000 1.000000 -783951.875000 0.000000 2.000000 
3302.788047 -384.001567 -1001.155701 10634119.000000 6.000000 6.000000 -784095.312500 0.000000 2.000000 
3257.210898 -320.786357 -1148.737900 10932529.000000 7.000000 3.000000 -784049.500000 0.000000 2.000000 
-3089.250771 -1421.652599 -1046.258698 1732009.000000 7.000000 6.000000 -784811.875000 0.000000 0.000000 
2801.634727 -1363.995311 -1124.501900 10642099.000000 5.000000 2.000000 -784093.562500 0.000000 2.000000 
-2598.992227 -657.198711 -1122.979200 9504888.000000 7.000000 7.000000 -784257.437500 0.000000 2.000000 
3047.212852 -848.968914 -603.775818 13028742.000000 1.000000 1.000000 -783755.500000 0.000000 2.000000 
2852.687461 -577.499370 -1000.292999 8547803.000000 1.000000 1.000000 -784385.000000 0.000000 1.000000 
-2826.403359 -1392.380901 -999.821899 3116569.000000 2.000000 1.000000 -784722.937500 0.000000 0.000000 
-2938.898965 -627.805034 -513.471130 9804835.000000 2.000000 2.000000 -784213.562500 0.000000 2.000000 
-2923.205117 -415.109966 -1000.233795 13352857.000000 1.000000 1.000000 -783717.562500 0.000000 2.000000 
3102.215781 -865.923687 176.885254 8547866.000000 5.000000 4.000000 -784385.000000 0.000000 1.000000 
-3007.901650 -1269.471996 -999.592499 2325549.000000 5.000000 2.000000 -784775.125000 0.000000 0.000000 
-3038.069131 -786.928691 -1000.053894 13653015.000000 1.000000 1.000000 -783681.000000 0.000000 2.000000 
-2664.801797 -321.774395 -1056.252800 9507479.000000 2.000000 2.000000 -784257.000000 0.000000 2.000000 
-2955.651406 -916.257793 -853.699005 12170697.000000 7.000000 7.000000 -783875.125000 0.000000 2.000000 
3044.134727 -801.377178 -830.372589 8547871.000000 7.000000 4.000000 -784385.000000 0.000000 1.000000 
3337.525352 -321.457012 -1092.338600 11529907.000000 7.000000 5.000000 -783961.312500 0.000000 2.000000 
-2838.873574 -1077.454814 -906.778793 9208294.000000 4.000000 2.000000 -784299.375000 0.000000 2.000000 
2926.897422 -910.393596 -1000.517700 10638949.000000 7.000000 6.000000 -784094.375000 0.000000 2.000000 
2995.970664 -747.466716 -999.950897 8547872.000000 1.000000 1.000000 -784385.000000 0.000000 1.000000 
2847.740195 -581.295757 -999.825806 8547873.000000 1.000000 1.000000 -784385.000000 0.000000 1.000000 
-2944.422891 -415.941021 -1000.011993 13056548.000000 1.000000 1.000000 -783750.312500 0.000000 2.000000 
-3162.202920 -1420.521694 -1089.929001 2324583.000000 7.000000 7.000000 -784775.375000 0.000000 0.000000 
-3198.641152 -596.873882 -1076.854301 12172730.000000 7.000000 3.000000 -783874.687500 0.000000 2.000000 
-2839.918008 -637.012432 -862.369293 8616332.000000 7.000000 5.000000 -784377.062500 0.000000 1.000000 
-2681.912148 -789.985820 -1000.329803 13353065.000000 2.000000 2.000000 -783717.500000 0.000000 2.000000 
-2848.389688 -1124.048198 -1001.416595 1338478.000000 7.000000 7.000000 -784833.062500 0.000000 0.000000 
3043.732383 -810.935710 -837.695709 8547941.000000 7.000000 3.000000 -784385.000000 0.000000 1.000000 
-2839.418008 -880.643413 -966.525894 9209345.000000 4.000000 4.000000 -784299.187500 0.000000 2.000000 
-2958.014688 -1084.046428 -922.947205 14546421.000000 5.000000 1.000000 -783597.875000 0.000000 2.000000 
-3166.895303 -321.969829 -1035.631203 8918496.000000 3.000000 3.000000 -784340.687500 0.000000 2.000000 
3045.100547 -812.475627 -839.871399 8547941.000000 7.000000 7.000000 -784385.000000 0.000000 1.000000 
3276.398398 -322.676738 -1132.215401 13025664.000000 7.000000 7.000000 -783755.937500 0.000000 2.000000 
3173.126914 -1284.521007 -1001.583893 13030493.000000 7.000000 7.000000 -783755.187500 0.000000 2.000000 
-2598.061563 -1252.755107 -1098.409401 9798676.000000 7.000000 6.000000 -784214.687500 0.000000 2.000000 
-2952.426309 -650.105571 -608.140930 12169857.000000 7.000000 7.000000 -783875.312500 0.000000 2.000000 
-2840.227578 -637.375591 -862.899292 8616332.000000 7.000000 6.000000 -784377.062500 0.000000 1.000000 
-3197.786172 -387.298320 -1089.224602 12763110.000000 7.000000 7.000000 -783784.062500 0.000000 2.000000 
-2957.344766 -805.138225 -987.759094 14544742.000000 5.000000 5.000000 -783598.125000 0.000000 2.000000 
-2597.922402 -952.324871 -1040.624100 9799797.000000 7.000000 5.000000 -784214.437500 0.000000 2.000000 
-2803.784707 -617.670879 -999.979004 12167969.000000 2.000000 1.000000 -783875.625000 0.000000 2.000000 
3233.257773 -1213.253490 -999.000305 13628432.000000 7.000000 3.000000 -783686.312500 0.000000 2.000000 
-5897.971963 -782.583721 178.631348 13388692.000000 7.000000 6.000000 -783710.312500 0.000000 2.000000 
-2648.135293 -452.968120 -1000.239197 9802599.000000 1.000000 1.000000 -784213.937500 0.000000 2.000000 
-2957.434121 -860.415508 -997.574295 12170558.000000 7.000000 7.000000 -783875.187500 0.000000 2.000000 
-3108.805947 -590.266094 -999.603302 14544323.000000 3.000000 2.000000 -783598.250000 0.000000 2.000000 
-2597.998574 -470.010234 -1087.152000 10688451.000000 7.000000 7.000000 -784083.875000 0.000000 2.000000 
-3000.242715 -770.415203 -1000.010696 12466658.000000 1.000000 1.000000 -783820.125000 0.000000 2.000000 
2979.770469 -440.818218 -999.602997 11232968.000000 7.000000 3.000000 -784004.625000 0.000000 2.000000 
3326.773398 -464.394878 -1000.274307 10933158.000000 6.000000 4.000000 -784049.375000 0.000000 2.000000 
3235.865195 -618.601909 -1002.103104 14523941.000000 7.000000 7.000000 -783601.750000 0.000000 2.000000 
2927.331016 -712.628398 -1000.655594 11533477.000000 7.000000 6.000000 -783960.812500 0.000000 2.000000 
-2954.703652 -677.329875 -818.645294 13058156.000000 3.000000 3.000000 -783750.062500 0.000000 2.000000 
2866.286094 -1230.567791 -999.491898 13928522.000000 7.000000 4.000000 -783655.000000 0.000000 2.000000 
3043.421836 -840.814495 -861.306702 8548151.000000 7.000000 3.000000 -784385.000000 0.000000 1.000000 
-2597.335000 -723.837627 -1013.570801 8613673.000000 7.000000 2.000000 -784377.437500 0.000000 1.000000 
3044.025352 -841.499126 -862.270203 8548151.000000 7.000000 5.000000 -784385.000000 0.000000 1.000000 
2811.314414 -1287.932109 -1001.587097 13330513.000000 7.000000 7.000000 -783722.437500 0.000000 2.000000 
2882.182578 -771.606426 -1001.508804 12430595.000000 7.000000 7.000000 -783827.312500 0.000000 2.000000 
-2629.638223 -1288.248699 -998.724106 1535543.000000 5.000000 1.000000 -784822.500000 0.000000 0.000000 
-2901.999551 -1257.433300 -1001.735504 548196.000000 7.000000 7.000000 -784871.875000 0.000000 0.000000 
-3197.429971 -840.894512 -1138.732300 13951705.000000 6.000000 5.000000 -783650.750000 0.000000 2.000000 
-2763.404824 -665.012981 -1000.238800 9506497.000000 1.000000 1.000000 -784257.125000 0.000000 2.000000 
-2840.768105 -783.035503 -702.151093 9209904.000000 4.000000 1.000000 -784299.125000 0.000000 2.000000 
-2842.034707 -677.238872 -698.018402 9803576.000000 7.000000 5.000000 -784213.812500 0.000000 2.000000 
-2958.060098 -912.879009 -945.632294 12466727.000000 7.000000 2.000000 -783820.062500 0.000000 2.000000 
-2952.374551 -809.817729 -587.648071 14544740.000000 3.000000 3.000000 -783598.187500 0.000000 2.000000 
3047.341758 -820.085979 -598.701477 13028602.000000 1.000000 1.000000 -783755.562500 0.000000 2.000000 
-2704.666543 -1298.814312 -999.976807 350809.000000 7.000000 4.000000 -784882.000000 0.000000 0.000000 
-2839.056680 -809.880779 -929.099106 8912755.000000 6.000000 4.000000 -784341.750000 0.000000 2.000000 
-2647.129922 -967.401775 -1000.288406 9503836.000000 1.000000 1.000000 -784257.625000 0.000000 2.000000 
-2597.460488 -1311.474590 -1098.612202 2523765.000000 3.000000 1.000000 -784762.125000 0.000000 0.000000 
2840.502891 -460.049907 -1000.914001 13625773.000000 7.000000 6.000000 -783687.375000 0.000000 2.000000 
2960.112266 -864.944316 -999.336395 10638529.000000 6.000000 2.000000 -784094.437500 0.000000 2.000000 
-3196.999063 -684.580425 -1003.901505 14545513.000000 6.000000 6.000000 -783598.000000 0.000000 2.000000 
3043.811484 -861.580486 -878.186707 8548291.000000 7.000000 5.000000 -784384.937500 0.000000 1.000000 
3044.116172 -861.928508 -878.675110 8548291.000000 7.000000 6.000000 -784384.937500 0.000000 1.000000 
3044.595664 -862.476177 -879.444000 8548291.000000 7.000000 7.000000 -784384.937500 0.000000 1.000000 
-2854.309121 -1200.804088 -1000.389801 9207804.000000 2.000000 2.000000 -784299.500000 0.000000 2.000000 
2819.635703 -605.840068 -1000.015701 8548293.000000 1.000000 1.000000 -784384.937500 0.000000 1.000000 
-2596.933633 -1137.102581 -1006.300400 8908975.000000 4.000000 1.000000 -784342.437500 0.000000 2.000000 
-2842.959023 -854.711589 -654.966309 9802735.000000 7.000000 7.000000 -784213.937500 0.000000 2.000000 
-2950.187051 -658.207988 -438.414978 12169856.000000 7.000000 7.000000 -783875.312500 0.000000 2.000000 
-2827.355996 -1403.069194 -1000.225800 1929902.000000 4.000000 3.000000 -784800.750000 0.000000 0.000000 
3043.710898 -871.678813 -886.210693 8548361.000000 7.000000 5.000000 -784384.937500 0.000000 1.000000 
-2954.668008 -730.390117 -681.790985 12170137.000000 7.000000 3.000000 -783875.250000 0.000000 2.000000 
-2953.254434 -699.396709 -616.105103 13354884.000000 5.000000 3.000000 -783717.187500 0.000000 2.000000 
-3010.698525 -321.736797 -1006.036407 10694331.000000 1.000000 1.000000 -784082.875000 0.000000 2.000000 
-2955.704141 -665.280010 -743.890594 13948763.000000 5.000000 1.000000 -783651.312500 0.000000 2.000000 
3042.332969 -880.343792 -892.217987 8548431.000000 7.000000 1.000000 -784384.937500 0.000000 1.000000 
3042.758750 -880.833416 -892.903412 8548431.000000 7.000000 2.000000 -784384.937500 0.000000 1.000000 
3002.538047 -1243.797405 -999.617905 10342219.000000 6.000000 2.000000 -784139.312500 0.000000 2.000000 
-2956.980020 -987.366191 -939.101898 13950723.000000 6.000000 4.000000 -783650.937500 0.000000 2.000000 
-3199.002236 -593.897075 -1035.692001 13060188.000000 7.000000 1.000000 -783749.625000 0.000000 2.000000 
-5897.149941 -801.823528 187.069092 13684232.000000 6.000000 1.000000 -783674.250000 0.000000 2.000000 
3044.441367 -882.765483 -895.608597 8548431.000000 7.000000 7.000000 -784384.937500 0.000000 1.000000 
3109.549766 -626.138042 -554.003784 10636427.000000 4.000000 1.000000 -784094.812500 0.000000 2.000000 
2956.556602 -781.941997 -1000.305405 8548432.000000 2.000000 2.000000 -784384.937500 0.000000 1.000000 
2810.178672 -613.920879 -1000.007996 8548433.000000 1.000000 1.000000 -784384.937500 0.000000 1.000000 
-2840.191934 -843.679912 -904.463699 10098977.000000 7.000000 7.000000 -784170.750000 0.000000 2.000000 
-3195.167764 -1268.011211 -1000.130600 2918537.000000 3.000000 2.000000 -784736.000000 0.000000 0.000000 
3042.928672 -891.308696 -901.436295 8548501.000000 7.000000 3.000000 -784384.937500 0.000000 1.000000 
-3104.940713 -321.811748 -1094.096699 9511888.000000 2.000000 2.000000 -784256.125000 0.000000 2.000000 
-2597.460488 -1366.288585 -1019.892807 2325688.000000 3.000000 1.000000 -784775.062500 0.000000 0.000000 
3045.712852 -865.960796 -718.205414 13926561.000000 1.000000 1.000000 -783655.312500 0.000000 2.000000 
-2841.680215 -762.214885 -651.626312 10690967.000000 7.000000 3.000000 -784083.500000 0.000000 2.000000 
3172.077109 -517.215801 -999.071106 13326103.000000 7.000000 2.000000 -783723.125000 0.000000 2.000000 
-3198.896768 -378.940288 -1022.677200 13948766.000000 6.000000 1.000000 -783651.312500 0.000000 2.000000 
2805.394492 -617.897319 -999.921204 8548503.000000 2.000000 1.000000 -784384.937500 0.000000 1.000000 
2805.597617 -618.131450 -1000.283600 8548503.000000 2.000000 2.000000 -784384.937500 0.000000 1.000000 
-2842.607461 -747.565410 -592.407471 10986577.000000 7.000000 5.000000 -784038.312500 0.000000 2.000000 
-2845.038613 -669.668926 -510.567688 9803645.000000 7.000000 7.000000 -784213.750000 0.000000 2.000000 
2801.370078 -622.750835 -1001.200699 8548573.000000 7.000000 2.000000 -784384.937500 0.000000 1.000000 
3092.317344 -431.939678 -1000.655594 11531307.000000 7.000000 6.000000 -783961.125000 0.000000 2.000000 
-3197.793984 -373.365703 -1074.954903 12763040.000000 7.000000 7.000000 -783784.062500 0.000000 2.000000 
-2598.359902 -441.443706 -1127.748400 10393261.000000 7.000000 7.000000 -784128.875000 0.000000 2.000000 
-2598.759805 -1049.750530 -1049.541901 9502996.000000 7.000000 7.000000 -784257.750000 0.000000 2.000000 
