ply
format ascii 1.0
comment Created by CloudCompare v2.12 alpha
comment Created 6/15/2021 10:59 PM
obj_info Generated by CloudCompare!
element vertex 497
property double x
property double y
property double z
property float scalar_fullwaveIndex
property float scalar_NumberOfReturns
property float scalar_ReturnNumber
property float scalar_GpsTime
property float scalar_Intensity
end_header
3155.671836 -1047.194011 -507.023926 209718.000000 4.000000 4.000000 -1251072.125000 0.000000 
3402.040977 -1280.692607 -1029.566200 133217.000000 1.000000 1.000000 -1251097.000000 139.000000 
3107.145469 -1421.445705 -1140.791000 145810.000000 5.000000 4.000000 -1251089.750000 0.000000 
-2843.961953 -714.719585 -521.175903 437135.000000 1.000000 1.000000 -1250966.000000 6.000000 
3402.047812 -1222.021007 -1092.928001 129223.000000 1.000000 1.000000 -1251098.750000 128.000000 
3402.044883 -1222.032390 -1076.199799 129224.000000 1.000000 1.000000 -1251098.750000 126.000000 
-2850.411660 -623.308452 -907.876404 164350.000000 6.000000 4.000000 -1251084.875000 0.000000 
3402.288047 -1077.683574 -1059.596001 214120.000000 5.000000 2.000000 -1251070.750000 0.000000 
3402.067344 -1343.269207 -1143.121500 137760.000000 1.000000 1.000000 -1251094.375000 169.000000 
3049.686484 -651.437786 -391.826172 312956.000000 1.000000 1.000000 -1251046.375000 4.000000 
-2962.608438 -321.468486 -1119.164200 476316.000000 2.000000 1.000000 -1250956.250000 0.000000 
3314.982383 -1421.479702 -1125.185900 144551.000000 2.000000 2.000000 -1251090.625000 0.000000 
3402.054648 -508.576763 -1108.894199 739854.000000 1.000000 1.000000 -1250912.125000 2.000000 
3160.181602 -1109.741497 -851.686005 129232.000000 1.000000 1.000000 -1251098.750000 52.000000 
3049.218711 -835.100688 -432.320679 568793.000000 1.000000 1.000000 -1250925.500000 1.000000 
3159.536094 -1109.477581 -799.214813 129234.000000 1.000000 1.000000 -1251098.750000 48.000000 
3159.201133 -1109.339702 -772.211212 129235.000000 1.000000 1.000000 -1251098.750000 46.000000 
3158.866172 -1109.201580 -744.632599 129236.000000 1.000000 1.000000 -1251098.750000 44.000000 
3158.516562 -1109.057476 -716.418793 129237.000000 1.000000 1.000000 -1251098.750000 42.000000 
3158.153281 -1108.906230 -687.509399 129238.000000 1.000000 1.000000 -1251098.750000 40.000000 
3157.748984 -1108.736309 -657.825897 129239.000000 1.000000 1.000000 -1251098.750000 37.000000 
3149.095664 -629.676982 -349.662781 206852.000000 1.000000 1.000000 -1251072.875000 7.000000 
3156.987266 -1108.418071 -595.952515 129241.000000 1.000000 1.000000 -1251098.750000 33.000000 
3045.546836 -657.627300 -722.188385 312882.000000 1.000000 1.000000 -1251046.375000 5.000000 
3401.606406 -981.229778 -1062.737396 213700.000000 5.000000 5.000000 -1251070.875000 0.000000 
2802.026328 -558.919048 -1049.211800 315468.000000 1.000000 1.000000 -1251045.000000 6.000000 
3155.272422 -1107.693401 -459.617798 129245.000000 1.000000 1.000000 -1251098.750000 24.000000 
3154.812461 -1107.497600 -422.328491 129246.000000 1.000000 1.000000 -1251098.750000 22.000000 
-2841.360879 -1013.823711 -733.485504 484580.000000 1.000000 1.000000 -1250954.375000 1.000000 
3153.799766 -1107.063274 -342.971985 129248.000000 1.000000 1.000000 -1251098.750000 18.000000 
-2597.932168 -1378.575298 -1126.511400 447767.000000 1.000000 1.000000 -1250960.750000 9.000000 
3271.789023 -321.486064 -1082.539597 206840.000000 1.000000 1.000000 -1251072.875000 14.000000 
3327.001914 -321.498516 -1034.293297 208101.000000 1.000000 1.000000 -1251072.500000 15.000000 
3179.222617 -1118.938091 -192.708984 129252.000000 1.000000 1.000000 -1251098.750000 19.000000 
3156.010703 -795.627483 -498.421570 208179.000000 2.000000 1.000000 -1251072.500000 0.000000 
-2597.977578 -481.445293 -1124.921801 432157.000000 1.000000 1.000000 -1250968.750000 6.000000 
3402.044883 -1223.072612 -1109.611801 129292.000000 1.000000 1.000000 -1251098.750000 129.000000 
2802.104453 -588.244243 -1031.149498 569417.000000 1.000000 1.000000 -1250925.375000 2.000000 
3402.043906 -1223.097301 -1076.248703 129294.000000 1.000000 1.000000 -1251098.750000 127.000000 
3120.878867 -1118.075908 -724.310211 305812.000000 6.000000 3.000000 -1251049.250000 0.000000 
3402.046836 -1223.124187 -1042.518303 129296.000000 1.000000 1.000000 -1251098.750000 123.000000 
3402.026328 -1312.010295 -1015.063797 135458.000000 1.000000 1.000000 -1251095.625000 145.000000 
3402.083945 -1301.319988 -1095.392300 134683.000000 1.000000 1.000000 -1251096.000000 154.000000 
3152.587852 -714.743694 -255.086609 207553.000000 2.000000 2.000000 -1251072.625000 0.000000 
3160.804648 -1111.490398 -902.584900 129300.000000 1.000000 1.000000 -1251098.750000 56.000000 
3402.068320 -518.581890 -1130.662500 211249.000000 3.000000 2.000000 -1251071.625000 0.000000 
3159.783164 -694.906230 -831.371887 207544.000000 2.000000 2.000000 -1251072.625000 0.000000 
3154.684531 -942.090129 -391.632385 209090.000000 3.000000 1.000000 -1251072.250000 0.000000 
2802.012656 -1393.141185 -1124.808300 301817.000000 1.000000 1.000000 -1251051.875000 8.000000 
2802.109336 -354.887065 -1035.649101 572077.000000 1.000000 1.000000 -1250924.875000 3.000000 
-2597.971719 -450.562358 -1124.826200 431667.000000 1.000000 1.000000 -1250969.000000 6.000000 
3158.517539 -1110.556621 -716.712585 129307.000000 1.000000 1.000000 -1251098.750000 42.000000 
2801.998984 -1035.679912 -1053.088097 307838.000000 1.000000 1.000000 -1251048.375000 7.000000 
3402.063437 -682.246624 -1072.448502 212230.000000 4.000000 3.000000 -1251071.375000 0.000000 
3157.374961 -1110.081279 -627.693787 129310.000000 1.000000 1.000000 -1251098.750000 35.000000 
3189.048789 -1421.528698 -1038.432602 145395.000000 5.000000 3.000000 -1251090.000000 0.000000 
3402.029258 -1278.661510 -1078.581902 133074.000000 1.000000 1.000000 -1251097.125000 145.000000 
2905.998008 -1421.523403 -1111.531700 146581.000000 5.000000 3.000000 -1251089.125000 0.000000 
3155.714805 -1109.384685 -495.951294 129314.000000 1.000000 1.000000 -1251098.625000 26.000000 
-2598.047402 -777.945171 -1119.352600 484366.000000 1.000000 1.000000 -1250954.375000 2.000000 
3154.817344 -1109.005413 -422.826294 129316.000000 1.000000 1.000000 -1251098.625000 22.000000 
-2869.880410 -1111.772991 -220.719299 443579.000000 6.000000 3.000000 -1250963.500000 0.000000 
3047.534141 -742.932170 -562.903503 311624.000000 1.000000 1.000000 -1251046.875000 5.000000 
-2838.230508 -935.852886 -978.406601 440629.000000 1.000000 1.000000 -1250964.625000 7.000000 
3401.954062 -557.575908 -1106.097599 770083.000000 1.000000 1.000000 -1250907.750000 1.000000 
-2842.856484 -995.606426 -610.050781 441614.000000 1.000000 1.000000 -1250964.250000 6.000000 
2946.282187 -1421.325405 -1086.263699 146442.000000 5.000000 5.000000 -1251089.250000 0.000000 
2802.132773 -494.023540 -1119.487200 570466.000000 1.000000 1.000000 -1250925.125000 2.000000 
3063.529258 -622.862041 -894.602097 205163.000000 1.000000 1.000000 -1251073.250000 9.000000 
3156.070273 -1071.211101 -501.603210 209858.000000 5.000000 2.000000 -1251072.125000 0.000000 
3402.036094 -1224.145000 -1093.002102 129363.000000 1.000000 1.000000 -1251098.625000 129.000000 
3402.086875 -1312.980510 -1031.510201 135527.000000 1.000000 1.000000 -1251095.500000 149.000000 
3049.582969 -732.809429 -396.829285 311766.000000 1.000000 1.000000 -1251046.750000 5.000000 
3402.043906 -1224.186595 -1042.589401 129366.000000 1.000000 1.000000 -1251098.625000 124.000000 
3042.980430 -625.182598 -930.389297 570888.000000 1.000000 1.000000 -1250925.125000 2.000000 
3402.054648 -1224.216991 -1008.335999 129368.000000 1.000000 1.000000 -1251098.625000 119.000000 
-2597.975625 -1244.579601 -1060.788597 445318.000000 1.000000 1.000000 -1250962.375000 9.000000 
3402.019492 -1297.373912 -1127.134501 134401.000000 1.000000 1.000000 -1251096.250000 154.000000 
3401.950156 -533.352520 -1106.180099 769873.000000 1.000000 1.000000 -1250907.750000 1.000000 
3160.193320 -1112.737407 -852.092712 129372.000000 1.000000 1.000000 -1251098.625000 53.000000 
3159.866172 -1112.603984 -826.128998 129373.000000 1.000000 1.000000 -1251098.625000 51.000000 
3402.080039 -1342.424510 -1016.868805 137698.000000 1.000000 1.000000 -1251094.375000 154.000000 
3402.023398 -711.410198 -1109.216801 741884.000000 1.000000 1.000000 -1250911.750000 2.000000 
3402.062461 -1391.163890 -1081.846603 141404.000000 1.000000 1.000000 -1251092.375000 177.000000 
3158.524375 -1112.056499 -717.007996 129377.000000 1.000000 1.000000 -1251098.625000 42.000000 
-2840.061074 -848.495830 -829.698395 439231.000000 1.000000 1.000000 -1250965.250000 6.000000 
3105.307578 -629.742656 -343.859497 206012.000000 1.000000 1.000000 -1251073.000000 7.000000 
3402.072227 -1383.882915 -1112.539600 140842.000000 1.000000 1.000000 -1251092.750000 178.000000 
2802.047812 -759.353130 -1118.144501 567596.000000 1.000000 1.000000 -1250925.625000 2.000000 
3156.593711 -1111.255718 -564.380676 129382.000000 1.000000 1.000000 -1251098.625000 31.000000 
3402.086875 -1308.146190 -1047.495598 135176.000000 1.000000 1.000000 -1251095.750000 150.000000 
3155.725547 -1110.891582 -496.401489 129384.000000 1.000000 1.000000 -1251098.625000 27.000000 
3155.278281 -1110.703105 -460.556274 129385.000000 1.000000 1.000000 -1251098.625000 24.000000 
3154.828086 -1110.513408 -423.325989 129386.000000 1.000000 1.000000 -1251098.625000 22.000000 
2802.081016 -329.013042 -1122.857401 318897.000000 1.000000 1.000000 -1251042.625000 5.000000 
3153.819297 -1110.084514 -344.082275 129388.000000 1.000000 1.000000 -1251098.625000 18.000000 
3153.304648 -1109.865093 -301.796387 129389.000000 1.000000 1.000000 -1251098.625000 17.000000 
3401.884727 -598.033184 -1130.022900 211739.000000 4.000000 4.000000 -1251071.500000 0.000000 
3152.154258 -1109.371013 -210.875610 129391.000000 1.000000 1.000000 -1251098.625000 13.000000 
3155.976523 -949.694194 -529.120483 209158.000000 3.000000 3.000000 -1251072.250000 0.000000 
3402.038047 -1225.170604 -1142.786700 129430.000000 1.000000 1.000000 -1251098.625000 131.000000 
3401.559531 -1206.768688 -1055.370201 214610.000000 5.000000 5.000000 -1251070.500000 0.000000 
3371.695273 -321.472026 -1019.832306 576347.000000 3.000000 2.000000 -1250923.875000 0.000000 
3212.103477 -321.467510 -1117.364201 575366.000000 2.000000 1.000000 -1250924.125000 0.000000 
3402.045859 -1225.224712 -1076.346298 129434.000000 1.000000 1.000000 -1251098.625000 127.000000 
-2597.938027 -1109.185710 -1060.229797 442868.000000 1.000000 1.000000 -1250963.875000 9.000000 
3402.040977 -1225.247997 -1042.660301 129436.000000 1.000000 1.000000 -1251098.625000 124.000000 
2860.319297 -1421.624904 -1081.230904 146722.000000 5.000000 2.000000 -1251088.875000 0.000000 
3402.051719 -1225.278087 -1008.429794 129438.000000 1.000000 1.000000 -1251098.625000 119.000000 
3158.067344 -1090.023174 -687.196808 773446.000000 1.000000 1.000000 -1250907.250000 1.000000 
3160.813437 -1114.478618 -902.919601 129440.000000 1.000000 1.000000 -1251098.625000 56.000000 
3156.539023 -814.364482 -561.356812 771277.000000 1.000000 1.000000 -1250907.500000 1.000000 
-2840.044961 -1081.428997 -834.411713 443011.000000 1.000000 1.000000 -1250963.750000 7.000000 
3402.040000 -1281.888195 -1052.913200 214890.000000 5.000000 3.000000 -1251070.500000 0.000000 
3159.541953 -1113.965618 -799.925598 129444.000000 1.000000 1.000000 -1251098.625000 49.000000 
3402.074180 -1305.360515 -1109.745201 747974.000000 1.000000 1.000000 -1250911.000000 3.000000 
3158.866172 -1113.690898 -745.452301 129446.000000 1.000000 1.000000 -1251098.625000 45.000000 
3402.075156 -1345.221508 -1033.159401 137907.000000 1.000000 1.000000 -1251094.250000 158.000000 
3202.248008 -1421.596996 -1080.988197 145323.000000 5.000000 2.000000 -1251090.125000 0.000000 
-2838.228555 -888.116130 -977.838196 439859.000000 1.000000 1.000000 -1250965.000000 7.000000 
3157.387656 -1113.082927 -628.405029 129450.000000 1.000000 1.000000 -1251098.625000 36.000000 
3156.993125 -1112.919719 -597.077576 129451.000000 1.000000 1.000000 -1251098.625000 33.000000 
2802.039023 -386.462627 -1047.222099 318058.000000 1.000000 1.000000 -1251043.250000 5.000000 
3047.407187 -999.274822 -572.577087 307774.000000 1.000000 1.000000 -1251048.375000 6.000000 
-2876.865762 -1114.968730 -454.681213 443646.000000 6.000000 2.000000 -1250963.500000 0.000000 
3155.282187 -1112.205303 -461.022888 129455.000000 1.000000 1.000000 -1251098.625000 24.000000 
3159.197227 -1035.967876 -788.019104 209714.000000 4.000000 4.000000 -1251072.125000 0.000000 
3154.364219 -1111.819927 -385.086792 129457.000000 1.000000 1.000000 -1251098.625000 20.000000 
3160.044883 -1033.263103 -856.480988 209713.000000 5.000000 4.000000 -1251072.125000 0.000000 
3153.307578 -1111.370586 -302.370605 129459.000000 1.000000 1.000000 -1251098.625000 17.000000 
3152.728477 -1111.122417 -258.042175 129460.000000 1.000000 1.000000 -1251098.625000 14.000000 
3152.165000 -1110.881694 -211.518982 129461.000000 1.000000 1.000000 -1251098.625000 13.000000 
2832.006797 -321.468242 -1120.090401 572706.000000 2.000000 1.000000 -1250924.750000 0.000000 
3402.037070 -1226.231395 -1142.790400 129500.000000 1.000000 1.000000 -1251098.625000 131.000000 
3149.685508 -1421.447994 -1098.165199 145602.000000 5.000000 4.000000 -1251089.875000 0.000000 
3402.249961 -608.751812 -1019.616592 211811.000000 4.000000 2.000000 -1251071.500000 0.000000 
3156.875937 -646.214519 -597.259888 207128.000000 2.000000 2.000000 -1251072.750000 0.000000 
2802.002891 -1327.247692 -1124.780899 302937.000000 1.000000 1.000000 -1251051.000000 8.000000 
3402.047812 -1226.299388 -1059.620598 129505.000000 1.000000 1.000000 -1251098.625000 126.000000 
3246.048789 -1421.461696 -1046.079697 145045.000000 3.000000 3.000000 -1251090.250000 0.000000 
3402.053672 -1226.327190 -1025.708801 129507.000000 1.000000 1.000000 -1251098.625000 122.000000 
3402.051719 -1226.338909 -1008.523697 129508.000000 1.000000 1.000000 -1251098.625000 120.000000 
3202.839805 -1421.669200 -1060.717796 145324.000000 4.000000 1.000000 -1251090.125000 0.000000 
-2934.070840 -1115.962200 -596.657898 443784.000000 6.000000 5.000000 -1250963.375000 0.000000 
-2847.676797 -1042.244792 -224.494690 442389.000000 1.000000 1.000000 -1250964.000000 5.000000 
3045.319297 -626.657329 -742.165009 570890.000000 1.000000 1.000000 -1250925.125000 2.000000 
3154.633750 -1001.415691 -412.970520 772748.000000 1.000000 1.000000 -1250907.375000 1.000000 
3158.208945 -897.202617 -674.655304 208876.000000 3.000000 1.000000 -1251072.375000 0.000000 
3159.206992 -1115.321270 -773.229401 129515.000000 1.000000 1.000000 -1251098.625000 47.000000 
3158.874961 -1115.186870 -745.726898 129516.000000 1.000000 1.000000 -1251098.625000 45.000000 
3152.658164 -1056.883098 -210.279114 209722.000000 4.000000 1.000000 -1251072.125000 0.000000 
3158.171836 -1114.900920 -688.763702 129518.000000 1.000000 1.000000 -1251098.625000 40.000000 
3157.754844 -1114.727886 -659.153503 129519.000000 1.000000 1.000000 -1251098.625000 38.000000 
-2844.735391 -991.072490 -457.696228 441546.000000 1.000000 1.000000 -1250964.375000 6.000000 
3401.828086 -1205.329692 -1125.087999 214609.000000 5.000000 4.000000 -1251070.500000 0.000000 
-2842.196328 -639.027629 -668.614990 480801.000000 1.000000 1.000000 -1250955.125000 2.000000 
3149.832969 -1421.446697 -1119.678600 145601.000000 5.000000 4.000000 -1251089.875000 0.000000 
3155.729453 -1113.890300 -497.280701 129524.000000 1.000000 1.000000 -1251098.625000 27.000000 
-2846.605996 -1076.552593 -305.644226 442948.000000 1.000000 1.000000 -1250963.750000 6.000000 
3154.838828 -1113.518901 -424.310791 129526.000000 1.000000 1.000000 -1251098.625000 22.000000 
2802.023398 -608.992290 -1123.667101 314697.000000 1.000000 1.000000 -1251045.500000 6.000000 
3064.276328 -1115.717021 -491.866211 305955.000000 6.000000 1.000000 -1251049.125000 0.000000 
3153.211875 -1112.828411 -302.842529 129529.000000 1.000000 1.000000 -1251098.625000 7.000000 
3151.843711 -1112.220684 -257.710876 129530.000000 1.000000 1.000000 -1251098.625000 1.000000 
3150.459922 -1111.605999 -210.265320 129531.000000 1.000000 1.000000 -1251098.625000 1.000000 
3177.006797 -1123.760295 -192.715027 129532.000000 1.000000 1.000000 -1251098.625000 18.000000 
3402.044883 -1227.294689 -1142.794100 129570.000000 1.000000 1.000000 -1251098.625000 131.000000 
3402.048789 -1227.309093 -1126.268999 129571.000000 1.000000 1.000000 -1251098.625000 131.000000 
3402.037070 -1227.315990 -1109.715401 129572.000000 1.000000 1.000000 -1251098.625000 130.000000 
3401.954062 -1392.406810 -1102.790901 776803.000000 1.000000 1.000000 -1250906.375000 0.000000 
-2906.593301 -628.161846 -476.730103 480173.000000 1.000000 1.000000 -1250955.250000 0.000000 
3154.920859 -757.744121 -442.442871 207900.000000 2.000000 2.000000 -1251072.625000 0.000000 
-2847.683633 -1095.283916 -227.567993 485285.000000 1.000000 1.000000 -1250954.125000 1.000000 
3402.043906 -1227.382213 -1025.788803 129577.000000 1.000000 1.000000 -1251098.625000 123.000000 
-2838.911172 -967.306011 -927.475494 484158.000000 1.000000 1.000000 -1250954.375000 1.000000 
3161.123008 -1117.577983 -927.984207 129579.000000 1.000000 1.000000 -1251098.625000 58.000000 
3049.370078 -1103.902019 -413.465698 306166.000000 1.000000 1.000000 -1251049.000000 5.000000 
3160.498984 -1117.328777 -878.161896 129581.000000 1.000000 1.000000 -1251098.625000 55.000000 
3160.188437 -1117.205120 -852.687500 129582.000000 1.000000 1.000000 -1251098.625000 53.000000 
3159.865195 -1117.075481 -826.777710 129583.000000 1.000000 1.000000 -1251098.625000 51.000000 
-2845.062051 -1017.363994 -440.103394 484583.000000 1.000000 1.000000 -1250954.375000 1.000000 
3159.208945 -1116.811687 -773.480988 129585.000000 1.000000 1.000000 -1251098.625000 47.000000 
3158.873984 -1116.676677 -745.995789 129586.000000 1.000000 1.000000 -1251098.625000 45.000000 
-2845.644570 -1097.943401 -384.686584 443297.000000 1.000000 1.000000 -1250963.625000 6.000000 
2858.219687 -1421.520595 -1023.161903 146724.000000 5.000000 3.000000 -1251088.875000 0.000000 
3161.116172 -1029.884197 -924.485107 209712.000000 4.000000 3.000000 -1251072.125000 0.000000 
3401.959922 -763.313579 -1105.364799 771833.000000 1.000000 1.000000 -1250907.500000 1.000000 
3156.998008 -1115.910808 -597.819397 129591.000000 1.000000 1.000000 -1251098.625000 33.000000 
3049.257773 -870.792095 -428.250183 568443.000000 1.000000 1.000000 -1250925.500000 1.000000 
3156.172812 -1115.570171 -532.222778 129593.000000 1.000000 1.000000 -1251098.625000 21.000000 
3117.460898 -626.543560 -598.091187 206218.000000 1.000000 1.000000 -1251073.000000 8.000000 
3402.453086 -799.444988 -1068.655800 212860.000000 5.000000 1.000000 -1251071.125000 0.000000 
3153.178672 -1114.259685 -423.373474 129596.000000 1.000000 1.000000 -1251098.625000 2.000000 
-2597.962930 -678.721416 -1056.960800 435378.000000 1.000000 1.000000 -1250966.875000 7.000000 
3159.861289 -971.496624 -829.230713 772535.000000 1.000000 1.000000 -1250907.375000 1.000000 
3149.716758 -1112.736614 -299.920593 129599.000000 1.000000 1.000000 -1251098.625000 2.000000 
3159.540977 -950.452373 -798.961090 209224.000000 3.000000 2.000000 -1251072.250000 0.000000 
-2844.062051 -977.604778 -510.902710 747696.000000 1.000000 1.000000 -1250911.000000 0.000000 
3314.498008 -322.280254 -1106.181702 767703.000000 5.000000 5.000000 -1250908.250000 0.000000 
3154.952109 -862.596416 -413.614624 208600.000000 3.000000 1.000000 -1251072.375000 0.000000 
3402.023398 -1286.576000 -1111.023499 133632.000000 1.000000 1.000000 -1251096.625000 150.000000 
3043.482383 -791.367595 -885.895599 310920.000000 1.000000 1.000000 -1251047.125000 6.000000 
3401.931602 -477.197368 -1106.368000 769383.000000 1.000000 1.000000 -1250907.875000 1.000000 
3152.417930 -837.594707 -211.699829 208393.000000 3.000000 1.000000 -1251072.500000 0.000000 
3402.026328 -1228.407604 -1059.736000 129645.000000 1.000000 1.000000 -1251098.625000 127.000000 
-2943.217813 -321.519146 -1088.162899 162249.000000 7.000000 4.000000 -1251085.250000 0.000000 
3402.069297 -1376.598888 -1097.032299 140283.000000 1.000000 1.000000 -1251093.000000 175.000000 
3315.195273 -1421.528408 -1090.418999 144553.000000 2.000000 1.000000 -1251090.625000 0.000000 
2848.872031 -321.537944 -1076.065498 198090.000000 1.000000 1.000000 -1251075.375000 9.000000 
2802.110312 -1166.922405 -1115.891701 563676.000000 1.000000 1.000000 -1250926.875000 1.000000 
3160.516562 -1118.822429 -878.347687 129651.000000 1.000000 1.000000 -1251098.625000 55.000000 
3160.200156 -1118.696270 -852.888611 129652.000000 1.000000 1.000000 -1251098.625000 53.000000 
3046.546836 -686.073284 -642.078308 312463.000000 1.000000 1.000000 -1251046.500000 5.000000 
3159.547812 -1118.435405 -800.626801 129654.000000 1.000000 1.000000 -1251098.625000 49.000000 
3402.445273 -771.925029 -1128.618999 212719.000000 5.000000 1.000000 -1251071.125000 0.000000 
3158.873008 -1118.164592 -746.263611 129656.000000 1.000000 1.000000 -1251098.625000 41.000000 
3158.445273 -1117.988384 -718.123596 129657.000000 1.000000 1.000000 -1251098.625000 19.000000 
3068.755820 -1115.155315 -490.906677 305955.000000 6.000000 3.000000 -1251049.125000 0.000000 
3401.937461 -461.239849 -1106.420700 769243.000000 1.000000 1.000000 -1250907.875000 1.000000 
3050.749961 -646.263530 -306.556274 313027.000000 1.000000 1.000000 -1251046.250000 4.000000 
3154.892539 -1116.446819 -596.812378 129661.000000 1.000000 1.000000 -1251098.625000 4.000000 
3153.961875 -1116.042217 -564.127808 129662.000000 1.000000 1.000000 -1251098.625000 4.000000 
3069.768516 -629.109966 -424.113708 769458.000000 5.000000 4.000000 -1250907.875000 0.000000 
3402.035117 -1272.627697 -1126.854300 132651.000000 1.000000 1.000000 -1251097.375000 146.000000 
3150.920859 -1114.715496 -458.859802 129665.000000 1.000000 1.000000 -1251098.625000 3.000000 
3402.061484 -1390.214611 -1143.206900 141330.000000 1.000000 1.000000 -1251092.500000 181.000000 
3043.498008 -691.837017 -883.873688 312390.000000 1.000000 1.000000 -1251046.500000 5.000000 
3402.072227 -1415.487896 -1035.724998 143297.000000 1.000000 1.000000 -1251091.375000 174.000000 
3146.327109 -1112.702922 -297.106018 129669.000000 1.000000 1.000000 -1251098.625000 2.000000 
3402.085898 -1333.970287 -1000.009293 137069.000000 1.000000 1.000000 -1251094.750000 67.000000 
3143.666953 -1111.532085 -204.026489 129671.000000 1.000000 1.000000 -1251098.625000 1.000000 
3175.905234 -1126.174297 -192.712891 129672.000000 1.000000 1.000000 -1251098.625000 19.000000 
3402.284141 -1077.495891 -1126.133400 214119.000000 5.000000 2.000000 -1251070.750000 0.000000 
2802.066367 -869.858379 -1025.276100 566477.000000 1.000000 1.000000 -1250925.875000 1.000000 
3059.712852 -1421.521205 -1021.061600 146025.000000 5.000000 3.000000 -1251089.500000 0.000000 
3402.077109 -1355.457805 -1049.549500 138676.000000 1.000000 1.000000 -1251093.875000 163.000000 
-2839.000527 -1079.911724 -918.604996 147071.000000 1.000000 1.000000 -1251088.625000 1.000000 
3402.068320 -1370.220195 -1050.078003 139796.000000 1.000000 1.000000 -1251093.250000 167.000000 
3159.787070 -795.121685 -818.715790 208244.000000 1.000000 1.000000 -1251072.500000 0.000000 
3402.046836 -1229.498699 -1025.952599 129717.000000 1.000000 1.000000 -1251098.625000 123.000000 
3047.550742 -714.402812 -561.595398 312044.000000 1.000000 1.000000 -1251046.625000 5.000000 
3161.131797 -1120.548870 -928.279694 129719.000000 1.000000 1.000000 -1251098.625000 42.000000 
3160.599570 -1120.325908 -903.512405 129720.000000 1.000000 1.000000 -1251098.625000 13.000000 
-2597.960488 -895.817974 -1125.954100 439087.000000 1.000000 1.000000 -1250965.250000 8.000000 
3159.017539 -1119.645427 -852.669006 129722.000000 1.000000 1.000000 -1251098.625000 8.000000 
3158.268516 -1119.324504 -826.595215 129723.000000 1.000000 1.000000 -1251098.625000 7.000000 
-2850.763223 -1118.259685 -760.443695 443642.000000 6.000000 4.000000 -1250963.500000 0.000000 
3049.395469 -943.463787 -419.835876 567743.000000 1.000000 1.000000 -1250925.625000 1.000000 
3158.814414 -1113.871318 -778.016998 210134.000000 5.000000 5.000000 -1251072.000000 0.000000 
3048.419883 -925.317485 -488.924805 308895.000000 1.000000 1.000000 -1251047.875000 5.000000 
-2842.789102 -1025.657390 -611.013611 442104.000000 1.000000 1.000000 -1250964.125000 6.000000 
-2845.919473 -723.259502 -364.464600 437277.000000 1.000000 1.000000 -1250966.000000 5.000000 
3152.493125 -1116.837200 -626.780212 129730.000000 1.000000 1.000000 -1251098.500000 5.000000 
3051.600547 -840.722393 -234.179016 310158.000000 1.000000 1.000000 -1251047.375000 4.000000 
3402.069297 -1306.135997 -1143.034000 135030.000000 1.000000 1.000000 -1251095.875000 157.000000 
-2842.559121 -992.769817 -638.466888 484371.000000 1.000000 1.000000 -1250954.375000 1.000000 
3402.076133 -1302.267192 -1127.188299 134751.000000 1.000000 1.000000 -1251096.000000 156.000000 
3147.584922 -1114.707805 -456.610474 129735.000000 1.000000 1.000000 -1251098.500000 3.000000 
2884.720664 -1421.620906 -1138.933400 146650.000000 5.000000 2.000000 -1251089.000000 0.000000 
3160.520469 -1007.195720 -859.201508 209573.000000 4.000000 2.000000 -1251072.250000 0.000000 
-2908.082559 -629.330303 -382.182007 480174.000000 1.000000 1.000000 -1250955.250000 0.000000 
3142.911094 -1112.667400 -294.267212 129739.000000 1.000000 1.000000 -1251098.500000 2.000000 
3047.884727 -784.925212 -536.791016 569282.000000 1.000000 1.000000 -1250925.375000 1.000000 
3140.239219 -1111.495891 -200.875610 129741.000000 1.000000 1.000000 -1251098.500000 1.000000 
3160.416953 -913.122173 -868.932587 209013.000000 3.000000 2.000000 -1251072.375000 0.000000 
3402.034141 -1230.460308 -1142.805000 129780.000000 1.000000 1.000000 -1251098.500000 132.000000 
-2841.085977 -704.090007 -755.130890 481500.000000 1.000000 1.000000 -1250955.000000 2.000000 
3156.332969 -1091.059612 -547.672485 773447.000000 1.000000 1.000000 -1250907.250000 1.000000 
3401.849570 -858.502483 -1066.733200 213140.000000 4.000000 4.000000 -1251071.000000 0.000000 
2802.087852 -963.081218 -1117.044701 565566.000000 1.000000 1.000000 -1250926.125000 1.000000 
-2839.771035 -1421.521297 -1053.066399 448678.000000 7.000000 5.000000 -1250959.875000 0.000000 
-2847.711465 -964.801494 -220.223816 441129.000000 1.000000 1.000000 -1250964.500000 5.000000 
3402.046836 -1230.553905 -1026.033501 129787.000000 1.000000 1.000000 -1251098.500000 124.000000 
3402.041953 -1230.564312 -1008.893204 129788.000000 1.000000 1.000000 -1251098.500000 121.000000 
3157.909141 -1120.577312 -927.580597 129789.000000 1.000000 1.000000 -1251098.500000 9.000000 
-2598.094277 -1081.969280 -1056.914597 761403.000000 1.000000 1.000000 -1250909.500000 0.000000 
3156.439414 -1119.950786 -877.396301 129791.000000 1.000000 1.000000 -1251098.500000 8.000000 
3402.032187 -1224.253307 -1109.710098 747134.000000 1.000000 1.000000 -1250911.000000 3.000000 
2802.063437 -475.865703 -1048.289398 316728.000000 1.000000 1.000000 -1251044.125000 6.000000 
3154.120078 -1118.959026 -798.845398 129794.000000 1.000000 1.000000 -1251098.500000 7.000000 
3156.328086 -1081.936077 -548.141907 773377.000000 1.000000 1.000000 -1250907.250000 1.000000 
3152.530234 -1118.278423 -743.768799 129796.000000 1.000000 1.000000 -1251098.500000 6.000000 
-2932.964395 -1120.271709 -899.956604 443850.000000 6.000000 3.000000 -1250963.375000 0.000000 
3402.235312 -507.337017 -1078.087997 211180.000000 3.000000 1.000000 -1251071.750000 0.000000 
-2847.883828 -858.677104 -216.093811 760216.000000 1.000000 1.000000 -1250909.750000 0.000000 
3225.320273 -1421.597805 -1043.301003 145185.000000 4.000000 2.000000 -1251090.125000 0.000000 
3153.538047 -627.280498 -539.966370 206919.000000 1.000000 1.000000 -1251072.875000 8.000000 
-2598.044473 -1110.752178 -1088.853100 167989.000000 1.000000 1.000000 -1251084.375000 0.000000 
3146.214805 -1115.559001 -526.192871 129803.000000 1.000000 1.000000 -1251098.500000 3.000000 
3145.225547 -1115.131511 -490.932922 129804.000000 1.000000 1.000000 -1251098.500000 3.000000 
3144.134727 -1114.658611 -454.270386 129805.000000 1.000000 1.000000 -1251098.500000 3.000000 
3159.256797 -775.997783 -758.798309 208105.000000 3.000000 1.000000 -1251072.500000 0.000000 
3152.962852 -666.056926 -272.241516 207203.000000 1.000000 1.000000 -1251072.750000 0.000000 
3140.739219 -1113.184001 -334.916687 129808.000000 1.000000 1.000000 -1251098.500000 2.000000 
3402.070273 -1401.999614 -1082.049400 142244.000000 1.000000 1.000000 -1251091.875000 179.000000 
3158.251914 -708.829814 -707.638000 207616.000000 2.000000 2.000000 -1251072.625000 0.000000 
3402.425742 -596.135845 -1130.039400 211739.000000 4.000000 1.000000 -1251071.500000 0.000000 
3235.593711 -1421.464794 -1103.185200 145112.000000 4.000000 4.000000 -1251090.250000 0.000000 
-2847.855508 -838.331218 -211.850220 439099.000000 1.000000 1.000000 -1250965.250000 5.000000 
3402.035117 -1231.527507 -1126.326900 129851.000000 1.000000 1.000000 -1251098.500000 132.000000 
3157.574180 -672.353313 -653.047791 207337.000000 2.000000 2.000000 -1251072.750000 0.000000 
3402.054648 -828.904521 -1109.371399 743074.000000 1.000000 1.000000 -1250911.625000 2.000000 
3402.042930 -1231.568615 -1076.632896 129854.000000 1.000000 1.000000 -1251098.500000 130.000000 
3402.036094 -1231.578014 -1059.913101 129855.000000 1.000000 1.000000 -1251098.500000 128.000000 
2802.028281 -1153.173992 -1124.646099 305877.000000 1.000000 1.000000 -1251049.125000 8.000000 
3402.039023 -1231.604412 -1026.112503 129857.000000 1.000000 1.000000 -1251098.500000 124.000000 
3047.450156 -818.423320 -566.151489 310504.000000 1.000000 1.000000 -1251047.250000 5.000000 
3402.079062 -1291.853008 -1109.740200 747834.000000 1.000000 1.000000 -1250911.000000 3.000000 
2802.089805 -438.812236 -1119.753201 571096.000000 1.000000 1.000000 -1250925.000000 2.000000 
3044.417930 -856.664470 -808.068604 309941.000000 1.000000 1.000000 -1251047.500000 6.000000 
3137.630820 -631.330913 -215.632629 206644.000000 1.000000 1.000000 -1251072.875000 6.000000 
3151.590781 -1119.297222 -824.471191 129863.000000 1.000000 1.000000 -1251098.500000 7.000000 
2810.314414 -1421.732006 -1017.937195 146864.000000 5.000000 1.000000 -1251088.750000 0.000000 
3050.818320 -1026.368877 -306.349792 566974.000000 1.000000 1.000000 -1250925.750000 1.000000 
3149.168906 -1118.263713 -742.431610 129866.000000 1.000000 1.000000 -1251098.500000 6.000000 
3148.346641 -1117.912883 -713.824585 129867.000000 1.000000 1.000000 -1251098.500000 6.000000 
2802.018516 -1417.816997 -1124.815300 301397.000000 1.000000 1.000000 -1251052.250000 8.000000 
3201.166953 -321.473247 -1117.443901 575296.000000 2.000000 1.000000 -1250924.125000 0.000000 
2801.994102 -989.174602 -1124.438700 308607.000000 1.000000 1.000000 -1251048.000000 7.000000 
3323.506797 -1421.475902 -1091.111900 144483.000000 2.000000 2.000000 -1251090.625000 0.000000 
-2668.041055 -322.668682 -1090.387299 162739.000000 6.000000 6.000000 -1251085.250000 0.000000 
2970.982383 -1421.616298 -1139.654200 146370.000000 5.000000 2.000000 -1251089.250000 0.000000 
3141.800742 -1115.102092 -488.734375 129874.000000 1.000000 1.000000 -1251098.500000 3.000000 
3140.714805 -1114.632976 -451.955994 129875.000000 1.000000 1.000000 -1251098.500000 3.000000 
3201.822227 -1421.527095 -1121.413799 145321.000000 4.000000 3.000000 -1251090.125000 0.000000 
-2846.747598 -921.598796 -297.743286 440428.000000 1.000000 1.000000 -1250964.750000 5.000000 
3137.290000 -1113.151226 -332.189087 129878.000000 1.000000 1.000000 -1251098.500000 2.000000 
3135.986289 -1112.584819 -288.502930 129879.000000 1.000000 1.000000 -1251098.500000 1.000000 
3160.321250 -1095.812419 -863.171509 746016.000000 1.000000 1.000000 -1250911.125000 2.000000 
3048.598594 -656.611309 -475.960510 312885.000000 1.000000 1.000000 -1251046.375000 5.000000 
3277.975547 -321.488506 -1082.616302 206980.000000 1.000000 1.000000 -1251072.750000 14.000000 
3192.142539 -1137.832500 -165.048218 129883.000000 2.000000 1.000000 -1251098.500000 5.000000 
3090.929648 -1421.441906 -1025.255203 145885.000000 5.000000 4.000000 -1251089.625000 0.000000 
3402.045859 -1232.584789 -1126.341700 129921.000000 1.000000 1.000000 -1251098.500000 133.000000 
3402.032187 -1232.591289 -1109.842602 129922.000000 1.000000 1.000000 -1251098.500000 132.000000 
2808.772422 -1421.630596 -1017.768295 146864.000000 5.000000 2.000000 -1251088.750000 0.000000 
3402.064414 -1408.268093 -1112.784302 142732.000000 1.000000 1.000000 -1251091.625000 183.000000 
3402.040000 -1232.632396 -1059.971703 129925.000000 1.000000 1.000000 -1251098.500000 128.000000 
-2843.528359 -801.165325 -561.072510 482482.000000 1.000000 1.000000 -1250954.750000 1.000000 
-2598.042031 -1121.945476 -1088.818600 168059.000000 1.000000 1.000000 -1251084.375000 0.000000 
3155.653281 -786.243206 -500.728394 208109.000000 3.000000 3.000000 -1251072.500000 0.000000 
-2847.064004 -776.770610 -277.136475 482205.000000 1.000000 1.000000 -1250954.875000 1.000000 
-2598.064004 -1146.395122 -1117.230598 487936.000000 1.000000 1.000000 -1250953.250000 1.000000 
-2597.992227 -811.881389 -1031.717697 484717.000000 1.000000 1.000000 -1250954.375000 1.000000 
3051.502891 -1025.911724 -244.103027 307358.000000 1.000000 1.000000 -1251048.500000 5.000000 
3148.223594 -1119.285381 -823.399292 129933.000000 1.000000 1.000000 -1251098.500000 7.000000 
-2846.134316 -930.484905 -352.766479 483744.000000 1.000000 1.000000 -1250954.500000 1.000000 
3146.597617 -1118.594280 -769.115692 129935.000000 1.000000 1.000000 -1251098.500000 6.000000 
3145.777305 -1118.245708 -741.081390 129936.000000 1.000000 1.000000 -1251098.500000 6.000000 
3144.951133 -1117.894329 -712.378510 129937.000000 1.000000 1.000000 -1251098.500000 6.000000 
3144.100547 -1117.532085 -682.937103 129938.000000 1.000000 1.000000 -1251098.500000 5.000000 
3158.322227 -748.177776 -700.780396 207896.000000 3.000000 2.000000 -1251072.625000 0.000000 
3146.757773 -322.280620 -1104.868999 767143.000000 6.000000 5.000000 -1250908.375000 0.000000 
3402.028281 -1296.445507 -1063.119698 134335.000000 1.000000 1.000000 -1251096.250000 148.000000 
3159.100547 -850.350994 -747.571899 208595.000000 2.000000 1.000000 -1251072.375000 0.000000 
3139.382773 -1115.513896 -522.039124 129943.000000 1.000000 1.000000 -1251098.500000 3.000000 
3138.317344 -1115.056072 -486.491516 129944.000000 1.000000 1.000000 -1251098.500000 3.000000 
3153.790977 -944.808391 -319.660583 209091.000000 3.000000 1.000000 -1251072.250000 0.000000 
2925.935508 -321.509746 -1024.151398 199561.000000 1.000000 1.000000 -1251075.000000 10.000000 
3359.386680 -321.190166 -1020.199600 576277.000000 3.000000 1.000000 -1250923.875000 0.000000 
3133.816367 -1113.117717 -329.440186 129948.000000 1.000000 1.000000 -1251098.500000 2.000000 
3277.879844 -1421.590908 -1012.889297 144837.000000 3.000000 1.000000 -1251090.375000 0.000000 
3042.453086 -852.529583 -965.676407 310009.000000 1.000000 1.000000 -1251047.500000 6.000000 
3074.568320 -321.700542 -1028.498299 574457.000000 2.000000 2.000000 -1250924.250000 0.000000 
3173.720664 -1131.010295 -192.704895 129952.000000 1.000000 1.000000 -1251098.500000 18.000000 
-2838.288125 -625.635479 -973.935196 435729.000000 1.000000 1.000000 -1250966.625000 6.000000 
3364.426719 -1421.533596 -1045.495598 144136.000000 2.000000 1.000000 -1251090.875000 1.000000 
3401.918906 -445.544048 -1131.247900 210759.000000 3.000000 3.000000 -1251071.875000 0.000000 
-2843.978066 -683.212993 -519.356995 436645.000000 1.000000 1.000000 -1250966.250000 5.000000 
-2842.883828 -904.796001 -606.831726 440144.000000 1.000000 1.000000 -1250964.875000 6.000000 
-2597.943887 -564.119243 -1055.730904 433488.000000 1.000000 1.000000 -1250968.000000 7.000000 
-2598.042031 -1193.360210 -1116.948799 488356.000000 1.000000 1.000000 -1250953.125000 1.000000 
3402.048789 -1233.700206 -1043.220703 129996.000000 1.000000 1.000000 -1251098.500000 127.000000 
3402.044883 -1233.710704 -1026.273697 129997.000000 1.000000 1.000000 -1251098.500000 125.000000 
3402.047812 -1233.724712 -1009.169006 129998.000000 1.000000 1.000000 -1251098.500000 122.000000 
3013.947227 -321.538799 -1130.947100 201309.000000 1.000000 1.000000 -1251074.375000 11.000000 
3402.073203 -1329.202190 -1048.474403 136716.000000 1.000000 1.000000 -1251094.875000 156.000000 
3401.893516 -541.396709 -1023.410599 211391.000000 3.000000 3.000000 -1251071.625000 0.000000 
3145.612266 -1119.602092 -848.746185 130002.000000 1.000000 1.000000 -1251098.500000 7.000000 
3144.787070 -1119.252605 -822.301697 130003.000000 1.000000 1.000000 -1251098.500000 7.000000 
-2844.729531 -995.376506 -457.877991 441616.000000 1.000000 1.000000 -1250964.250000 6.000000 
3143.197227 -1118.580730 -767.853790 130005.000000 1.000000 1.000000 -1251098.500000 6.000000 
3142.374961 -1118.232524 -739.726593 130006.000000 1.000000 1.000000 -1251098.500000 6.000000 
3141.537070 -1117.877483 -710.924011 130007.000000 1.000000 1.000000 -1251098.500000 5.000000 
3140.636680 -1117.494670 -681.359100 130008.000000 1.000000 1.000000 -1251098.500000 5.000000 
-2841.040078 -795.492778 -753.582703 438392.000000 1.000000 1.000000 -1250965.500000 6.000000 
3158.938437 -1049.252117 -786.307404 209784.000000 5.000000 5.000000 -1251072.125000 0.000000 
2831.267539 -320.603618 -1102.389801 766163.000000 5.000000 1.000000 -1250908.625000 0.000000 
3136.916953 -1115.911113 -554.318298 130012.000000 1.000000 1.000000 -1251098.500000 4.000000 
3402.047812 -1061.443279 -1126.263901 214049.000000 5.000000 3.000000 -1251070.750000 0.000000 
2860.883750 -1421.623806 -1138.734200 146720.000000 5.000000 2.000000 -1251088.875000 0.000000 
3133.800742 -1114.579021 -447.272095 130015.000000 1.000000 1.000000 -1251098.500000 3.000000 
3132.659141 -1114.088909 -408.742615 130016.000000 1.000000 1.000000 -1251098.500000 2.000000 
3105.844687 -1421.362697 -1095.601200 145812.000000 5.000000 5.000000 -1251089.750000 0.000000 
2928.305625 -1421.619396 -1003.396194 146515.000000 5.000000 2.000000 -1251089.125000 0.000000 
3129.033164 -1112.530010 -282.717285 130019.000000 1.000000 1.000000 -1251098.500000 1.000000 
3083.087852 -626.165264 -643.269501 571171.000000 2.000000 2.000000 -1250925.000000 0.000000 
3402.030234 -1321.601207 -1015.661697 136158.000000 1.000000 1.000000 -1251095.125000 148.000000 
3402.067344 -1402.898998 -1082.064903 142314.000000 1.000000 1.000000 -1251091.875000 179.000000 
3191.992148 -1140.606792 -166.152100 130023.000000 1.000000 1.000000 -1251098.500000 12.000000 
-2840.139199 -746.844707 -827.022308 437621.000000 1.000000 1.000000 -1250965.750000 6.000000 
3402.035117 -1234.681407 -1126.370001 130061.000000 1.000000 1.000000 -1251098.500000 134.000000 
3402.033164 -1234.693096 -1109.892899 130062.000000 1.000000 1.000000 -1251098.500000 133.000000 
3401.586875 -1283.761211 -1124.445601 214889.000000 5.000000 5.000000 -1251070.500000 0.000000 
-2847.888711 -1025.779888 -213.011475 760916.000000 1.000000 1.000000 -1250909.625000 0.000000 
-2841.053750 -751.111614 -752.097900 437692.000000 1.000000 1.000000 -1250965.750000 6.000000 
3155.333945 -940.075176 -462.211792 209089.000000 3.000000 2.000000 -1251072.250000 0.000000 
-2839.127480 -957.329021 -905.575897 440980.000000 1.000000 1.000000 -1250964.500000 7.000000 
3402.058555 -1404.685588 -1097.455601 142453.000000 1.000000 1.000000 -1251091.875000 181.000000 
3153.812461 -663.773784 -339.224304 207202.000000 1.000000 1.000000 -1251072.750000 0.000000 
3160.125937 -984.156475 -861.575409 209433.000000 3.000000 3.000000 -1251072.250000 0.000000 
3050.631797 -922.412517 -320.299072 567954.000000 1.000000 1.000000 -1250925.625000 1.000000 
3142.199180 -1119.588604 -847.745514 130072.000000 1.000000 1.000000 -1251098.500000 7.000000 
2988.369102 -1421.519893 -1037.354797 146304.000000 5.000000 3.000000 -1251089.375000 0.000000 
-2847.712930 -1110.637126 -225.087524 485425.000000 1.000000 1.000000 -1250954.125000 1.000000 
3155.275352 -707.374797 -456.272888 207550.000000 1.000000 1.000000 -1251072.625000 0.000000 
3138.943320 -1118.216716 -738.359100 130076.000000 1.000000 1.000000 -1251098.500000 6.000000 
3138.103477 -1117.861980 -709.460388 130077.000000 1.000000 1.000000 -1251098.500000 5.000000 
-2598.074258 -1373.328899 -1115.846600 489896.000000 1.000000 1.000000 -1250952.750000 1.000000 
3136.296836 -1117.097087 -649.334015 130079.000000 1.000000 1.000000 -1251098.500000 5.000000 
-2598.072305 -1233.302806 -1021.883194 488707.000000 1.000000 1.000000 -1250953.125000 1.000000 
-2739.225137 -320.906475 -1089.815701 162599.000000 7.000000 3.000000 -1251085.250000 0.000000 
3133.443320 -1115.886577 -552.316406 130082.000000 1.000000 1.000000 -1251098.500000 3.000000 
3132.451133 -1115.464702 -517.818176 130083.000000 1.000000 1.000000 -1251098.500000 3.000000 
3131.375937 -1115.006328 -482.029907 130084.000000 1.000000 1.000000 -1251098.500000 3.000000 
-2839.252480 -741.359172 -907.030701 165120.000000 1.000000 1.000000 -1251084.875000 0.000000 
3129.160117 -1114.060527 -406.242188 130086.000000 1.000000 1.000000 -1251098.500000 2.000000 
3158.230430 -885.946697 -676.635895 208806.000000 3.000000 1.000000 -1251072.375000 0.000000 
3126.763633 -1113.034893 -323.849182 130088.000000 1.000000 1.000000 -1251098.500000 2.000000 
3125.509727 -1112.497417 -279.781189 130089.000000 1.000000 1.000000 -1251098.500000 1.000000 
3027.221641 -1421.612499 -1115.584000 146161.000000 5.000000 2.000000 -1251089.375000 0.000000 
3129.995078 -1114.521526 -192.727112 130091.000000 1.000000 1.000000 -1251098.500000 15.000000 
3156.653281 -723.047222 -580.111877 207688.000000 2.000000 2.000000 -1251072.625000 0.000000 
-2841.109902 -730.919414 -753.323914 481780.000000 1.000000 1.000000 -1250954.875000 2.000000 
3393.079062 -1421.487102 -1002.054596 143859.000000 1.000000 1.000000 -1251091.000000 1.000000 
3091.507773 -1421.443904 -1094.763100 145882.000000 5.000000 4.000000 -1251089.625000 0.000000 
3402.039023 -1235.744091 -1109.918201 130132.000000 1.000000 1.000000 -1251098.375000 133.000000 
-2597.920938 -1011.230815 -1059.682404 441118.000000 1.000000 1.000000 -1250964.500000 9.000000 
3402.034141 -1235.766796 -1076.818802 130134.000000 1.000000 1.000000 -1251098.375000 131.000000 
3402.044883 -1235.783885 -1060.144798 130135.000000 1.000000 1.000000 -1251098.375000 129.000000 
3402.015586 -459.076152 -1108.804401 739364.000000 1.000000 1.000000 -1250912.250000 2.000000 
3047.811484 -702.197002 -544.673218 570122.000000 1.000000 1.000000 -1250925.250000 1.000000 
3402.051719 -1235.824596 -1009.350693 130138.000000 1.000000 1.000000 -1251098.375000 123.000000 
-2842.214883 -678.465984 -665.396301 481221.000000 1.000000 1.000000 -1250955.000000 2.000000 
2878.154258 -321.462749 -1119.764500 573056.000000 2.000000 1.000000 -1250924.625000 0.000000 
3139.542930 -1119.901226 -872.872192 130141.000000 1.000000 1.000000 -1251098.375000 7.000000 
3138.720664 -1119.555828 -846.722290 130142.000000 1.000000 1.000000 -1251098.375000 7.000000 
3137.934531 -1119.226604 -820.116486 130143.000000 1.000000 1.000000 -1251098.375000 7.000000 
3402.059531 -1395.696605 -1066.450302 141755.000000 1.000000 1.000000 -1251092.250000 176.000000 
3136.323203 -1118.551006 -765.299805 130145.000000 1.000000 1.000000 -1251098.375000 6.000000 
3135.493125 -1118.202373 -736.983185 130146.000000 1.000000 1.000000 -1251098.375000 6.000000 
3134.642539 -1117.844707 -707.984100 130147.000000 1.000000 1.000000 -1251098.375000 5.000000 
3402.446250 -680.997783 -1015.533798 212231.000000 4.000000 1.000000 -1251071.375000 0.000000 
3104.433555 -622.066265 -954.886307 205932.000000 1.000000 1.000000 -1251073.125000 9.000000 
3131.905234 -1116.690105 -616.206909 130150.000000 1.000000 1.000000 -1251098.375000 4.000000 
3130.970664 -1116.295818 -583.801270 130151.000000 1.000000 1.000000 -1251098.375000 4.000000 
-2598.069375 -1032.761577 -1089.090199 167499.000000 1.000000 1.000000 -1251084.500000 0.000000 
-2843.803262 -933.604473 -538.357422 166312.000000 1.000000 1.000000 -1251084.625000 0.000000 
3120.261680 -628.918926 -410.492126 206291.000000 1.000000 1.000000 -1251073.000000 7.000000 
3156.287070 -1070.552227 -501.768921 209858.000000 5.000000 1.000000 -1251072.125000 0.000000 
3402.068320 -501.523052 -1108.881802 739784.000000 1.000000 1.000000 -1250912.125000 2.000000 
2802.112266 -372.665142 -1035.319000 571867.000000 1.000000 1.000000 -1250924.875000 3.000000 
3123.212852 -1112.998516 -321.033875 130158.000000 1.000000 1.000000 -1251098.375000 2.000000 
3121.912070 -1112.442424 -276.773499 130159.000000 1.000000 1.000000 -1251098.375000 1.000000 
3120.585898 -1111.875530 -230.347229 130160.000000 1.000000 1.000000 -1251098.375000 1.000000 
3048.329062 -1100.759685 -505.043701 566272.000000 1.000000 1.000000 -1250925.875000 1.000000 
3172.110312 -1134.650127 -192.710327 130162.000000 1.000000 1.000000 -1251098.375000 18.000000 
3051.445273 -684.217571 -251.531921 570335.000000 1.000000 1.000000 -1250925.125000 1.000000 
3047.471641 -752.427776 -563.338989 311484.000000 1.000000 1.000000 -1251046.875000 5.000000 
3402.037070 -1236.778087 -1126.398399 130201.000000 1.000000 1.000000 -1251098.375000 134.000000 
3151.971641 -626.271587 -635.587524 571661.000000 2.000000 2.000000 -1250925.000000 0.000000 
-2845.106484 -1047.305583 -436.386108 484863.000000 1.000000 1.000000 -1250954.250000 1.000000 
3170.693320 -321.515605 -1081.206802 204600.000000 1.000000 1.000000 -1251073.500000 13.000000 
3402.040977 -1236.829387 -1060.201302 130205.000000 1.000000 1.000000 -1251098.375000 130.000000 
3402.041953 -1236.842388 -1043.423798 130206.000000 1.000000 1.000000 -1251098.375000 128.000000 
3402.046836 -1236.856792 -1026.511398 130207.000000 1.000000 1.000000 -1251098.375000 126.000000 
-2896.498574 -1116.559978 -603.616882 443714.000000 6.000000 3.000000 -1250963.500000 0.000000 
3402.090781 -1381.231304 -1002.625305 140639.000000 1.000000 1.000000 -1251092.875000 159.000000 
3402.073203 -1034.256877 -1109.582500 745174.000000 1.000000 1.000000 -1250911.250000 2.000000 
3136.094687 -1119.890483 -871.946991 130211.000000 1.000000 1.000000 -1251098.375000 7.000000 
3135.267539 -1119.544597 -845.708801 130212.000000 1.000000 1.000000 -1251098.375000 7.000000 
3134.471641 -1119.212810 -819.011292 130213.000000 1.000000 1.000000 -1251098.375000 7.000000 
2893.262656 -321.551616 -1023.164001 198931.000000 1.000000 1.000000 -1251075.125000 9.000000 
3051.417930 -663.964214 -254.345825 570545.000000 1.000000 1.000000 -1250925.125000 1.000000 
3132.011680 -1118.184612 -735.593597 130216.000000 1.000000 1.000000 -1251098.375000 5.000000 
3078.819297 -631.478008 -206.369995 205524.000000 1.000000 1.000000 -1251073.125000 6.000000 
3041.987266 -1421.439098 -1043.198196 146094.000000 5.000000 4.000000 -1251089.500000 0.000000 
3129.330039 -1117.059185 -645.959900 130219.000000 1.000000 1.000000 -1251098.375000 4.000000 
3159.136680 -735.894817 -764.824005 207825.000000 2.000000 1.000000 -1251072.625000 0.000000 
3402.075156 -1381.173809 -1081.643700 140634.000000 1.000000 1.000000 -1251092.875000 175.000000 
3126.429648 -1115.838420 -548.269897 130222.000000 1.000000 1.000000 -1251098.375000 3.000000 
3402.052695 -564.871440 -1108.990898 740414.000000 1.000000 1.000000 -1250912.125000 2.000000 
3124.331016 -1114.951824 -477.494995 130224.000000 1.000000 1.000000 -1251098.375000 3.000000 
3401.884727 -633.724224 -1074.014397 211950.000000 4.000000 4.000000 -1251071.375000 0.000000 
3122.036094 -1113.979473 -401.140015 130226.000000 1.000000 1.000000 -1251098.375000 2.000000 
3293.901328 -322.352275 -1106.020599 767633.000000 5.000000 5.000000 -1250908.250000 0.000000 
3157.167930 -889.090801 -609.809082 208807.000000 3.000000 2.000000 -1251072.375000 0.000000 
