ply
format ascii 1.0
comment Created by CloudCompare v2.12 alpha
comment Created 6/8/2021 9:02 PM
obj_info Generated by CloudCompare!
element vertex 461
property double x
property double y
property double z
property float scalar_fullwaveIndex
property float scalar_NumberOfReturns
property float scalar_ReturnNumber
property float scalar_GpsTime
property float scalar_Intensity
property float scalar_Original_cloud_index
end_header
753.803672 -1311.440197 -17.598877 10951707.000000 6.000000 4.000000 -784045.625000 0.000000 2.000000 
2345.174766 -1033.475994 -11.296021 12134772.000000 7.000000 2.000000 -783882.562500 0.000000 2.000000 
-3098.594277 -1466.885707 -32.994873 3879433.000000 7.000000 4.000000 -784673.500000 0.000000 1.000000 
-4402.138467 -1342.084514 -15.983643 13668200.000000 3.000000 1.000000 -783677.500000 0.000000 2.000000 
-4220.850869 -698.478496 -12.284424 2721743.000000 7.000000 4.000000 -784748.750000 0.000000 0.000000 
-153.199746 -482.350444 -16.781250 12440957.000000 6.000000 1.000000 -783825.312500 0.000000 2.000000 
3065.936484 -1039.550823 -12.906860 11534802.000000 7.000000 6.000000 -783960.562500 0.000000 2.000000 
-3843.317910 -394.524395 -15.126953 1340130.000000 7.000000 1.000000 -784832.562500 0.000000 0.000000 
-3576.399453 -1303.656505 -17.838501 7131139.000000 1.000000 1.000000 -784507.000000 0.000000 1.000000 
-3606.241982 -1266.612987 -18.850342 547733.000000 7.000000 6.000000 -784871.937500 0.000000 0.000000 
4877.196250 -1023.955303 -11.906738 5203966.000000 2.000000 1.000000 -784603.750000 0.000000 1.000000 
-2269.484414 -1263.900707 -17.924927 11275811.000000 3.000000 2.000000 -783995.687500 0.000000 2.000000 
-4679.120156 -563.067607 -15.849243 10117379.000000 4.000000 3.000000 -784167.187500 0.000000 2.000000 
4658.275352 -1465.742107 88.694092 4297326.000000 2.000000 2.000000 -784649.125000 0.000000 1.000000 
-2210.454141 -1387.850994 -16.320068 2326238.000000 4.000000 4.000000 -784774.937500 0.000000 0.000000 
-4915.935098 -1018.060283 -12.116333 7436754.000000 5.000000 5.000000 -784486.375000 0.000000 1.000000 
-1188.024941 -1026.958110 -12.080322 12451178.000000 6.000000 4.000000 -783823.375000 0.000000 2.000000 
3614.380820 -1440.058300 -15.270996 8547864.000000 4.000000 4.000000 -784385.000000 0.000000 1.000000 
3981.188437 -874.936992 -8.196777 7633457.000000 1.000000 1.000000 -784469.562500 0.000000 1.000000 
-1312.493203 -549.611797 -16.240967 2929394.000000 1.000000 1.000000 -784734.125000 0.000000 0.000000 
5792.581992 -300.907451 -14.787354 2193624.000000 1.000000 1.000000 -784783.812500 0.000000 0.000000 
-3625.810830 -499.978252 -17.547729 7732229.000000 1.000000 1.000000 -784464.375000 0.000000 1.000000 
-4515.587197 -1466.538494 -39.116699 3310683.000000 7.000000 5.000000 -784710.500000 0.000000 0.000000 
-1104.387246 -1316.712993 -16.472534 11560779.000000 3.000000 1.000000 -783955.437500 0.000000 2.000000 
-5395.397256 -1466.650798 32.756348 13382460.000000 2.000000 2.000000 -783711.500000 0.000000 2.000000 
498.225547 -1112.897502 -13.280640 13635362.000000 7.000000 2.000000 -783684.750000 0.000000 2.000000 
372.335410 -276.398418 -38.568237 10948281.000000 1.000000 1.000000 -784046.312500 0.000000 2.000000 
2200.909141 -1296.430004 -17.368652 10644825.000000 7.000000 3.000000 -784092.875000 0.000000 2.000000 
-1335.366738 -1437.739604 -16.089600 13943364.000000 7.000000 7.000000 -783652.312500 0.000000 2.000000 
3165.400352 -277.327251 -19.567383 13624299.000000 7.000000 6.000000 -783687.875000 0.000000 2.000000 
2713.711875 -1007.041790 -10.874146 14526458.000000 7.000000 4.000000 -783601.375000 0.000000 2.000000 
4329.257773 -1414.179393 -15.453247 3783704.000000 1.000000 1.000000 -784680.187500 0.000000 0.000000 
-1925.829141 -1329.797496 -17.394043 8902251.000000 3.000000 3.000000 -784343.687500 0.000000 2.000000 
-1520.605020 -313.711406 -15.055054 552887.000000 7.000000 4.000000 -784870.562500 0.000000 0.000000 
-4984.029336 -723.803508 -12.142578 9820787.000000 6.000000 5.000000 -784210.500000 0.000000 2.000000 
-1329.381387 -1224.789897 -16.790405 13644045.000000 7.000000 4.000000 -783682.875000 0.000000 2.000000 
5587.152305 -778.095928 -10.246704 7626172.000000 5.000000 2.000000 -784471.000000 0.000000 1.000000 
-2897.703652 -956.891887 24.333740 13059060.000000 5.000000 4.000000 -783749.875000 0.000000 2.000000 
-3550.438027 -515.855937 -17.228394 14249620.000000 3.000000 3.000000 -783622.812500 0.000000 2.000000 
-1331.649941 -924.734172 -10.682861 748342.000000 7.000000 7.000000 -784861.625000 0.000000 0.000000 
4379.220664 -663.693279 -12.292236 3779241.000000 3.000000 1.000000 -784681.062500 0.000000 0.000000 
3592.926719 -509.230205 -17.006592 10036735.000000 7.000000 4.000000 -784184.312500 0.000000 2.000000 
-3853.371865 -320.015728 -15.343872 12181056.000000 1.000000 1.000000 -783873.062500 0.000000 2.000000 
-2897.187539 -817.877483 133.237549 11873962.000000 7.000000 7.000000 -783913.312500 0.000000 2.000000 
-2299.489297 -994.783916 -10.273315 9500261.000000 3.000000 1.000000 -784258.312500 0.000000 2.000000 
4721.526328 -278.174419 88.532227 3381479.000000 1.000000 1.000000 -784706.812500 0.000000 0.000000 
-5345.208047 -1349.928295 -15.681274 10712377.000000 6.000000 1.000000 -784079.250000 0.000000 2.000000 
-4928.119424 -1463.238506 83.336060 9816165.000000 2.000000 2.000000 -784211.375000 0.000000 2.000000 
852.792441 -473.192241 -18.096558 10945969.000000 4.000000 3.000000 -784046.875000 0.000000 2.000000 
-2916.518105 -1073.538372 -13.376221 12466861.000000 3.000000 3.000000 -783820.062500 0.000000 2.000000 
2341.584922 -513.051494 -17.404053 10341307.000000 6.000000 5.000000 -784139.500000 0.000000 2.000000 
-2208.989297 -1303.376415 -17.661377 10683051.000000 1.000000 1.000000 -784084.812500 0.000000 2.000000 
500.766074 -1371.703014 -16.432251 353479.000000 6.000000 4.000000 -784881.375000 0.000000 0.000000 
2952.495078 -525.998516 -16.769287 9146759.000000 4.000000 3.000000 -784312.312500 0.000000 2.000000 
-387.147988 -634.968853 -14.287354 1740981.000000 3.000000 3.000000 -784809.687500 0.000000 0.000000 
-1404.404824 -297.042583 -14.893921 3328951.000000 1.000000 1.000000 -784707.562500 0.000000 0.000000 
-3737.599893 -357.568950 -16.006348 14250111.000000 3.000000 2.000000 -783622.687500 0.000000 2.000000 
-2532.828164 -1369.269298 -14.977539 1337786.000000 7.000000 1.000000 -784833.250000 0.000000 0.000000 
-5156.430947 -1406.317104 -17.667603 743876.000000 7.000000 7.000000 -784862.750000 0.000000 0.000000 
-5615.540444 -396.349346 -15.655029 4175732.000000 6.000000 1.000000 -784654.312500 0.000000 1.000000 
-357.209023 -280.442485 41.608643 752621.000000 6.000000 3.000000 -784860.437500 0.000000 0.000000 
4739.881797 -761.535930 -9.782471 7931864.000000 4.000000 1.000000 -784446.937500 0.000000 1.000000 
5097.550742 -1345.559093 -17.176147 3784944.000000 4.000000 4.000000 -784679.937500 0.000000 0.000000 
-2330.395059 -722.150371 -11.645874 13349839.000000 4.000000 2.000000 -783718.125000 0.000000 2.000000 
-4037.105020 -846.088298 -7.732666 9516148.000000 4.000000 1.000000 -784255.312500 0.000000 2.000000 
-5127.311074 -1092.967876 -12.869751 8627171.000000 7.000000 2.000000 -784375.062500 0.000000 1.000000 
-3253.638711 -978.349102 -10.765259 8319667.000000 1.000000 1.000000 -784409.625000 0.000000 1.000000 
4934.384727 -1069.876812 -13.311401 3585029.000000 2.000000 2.000000 -784693.062500 0.000000 0.000000 
642.993125 -1267.539714 -18.085205 10654978.000000 6.000000 4.000000 -784090.625000 0.000000 2.000000 
5561.625937 -1087.243083 -11.606445 12126858.000000 7.000000 2.000000 -783883.812500 0.000000 2.000000 
5611.156211 -960.523601 -10.231812 12126228.000000 7.000000 5.000000 -783883.875000 0.000000 2.000000 
5039.848594 -273.544780 42.566406 11226240.000000 7.000000 4.000000 -784005.812500 0.000000 2.000000 
2449.184531 -645.457500 -14.021240 9448599.000000 4.000000 4.000000 -784268.500000 0.000000 2.000000 
20.511680 -1418.499996 -15.197144 10957798.000000 4.000000 2.000000 -784044.250000 0.000000 2.000000 
-4972.373818 -931.042705 -9.586304 11602081.000000 3.000000 2.000000 -783947.687500 0.000000 2.000000 
-4985.703408 -1062.200420 -13.855347 8328972.000000 7.000000 7.000000 -784407.812500 0.000000 1.000000 
-3467.723916 -447.093486 -16.918579 14248500.000000 3.000000 1.000000 -783623.000000 0.000000 2.000000 
5153.749961 -1298.959697 -17.605347 6723034.000000 4.000000 2.000000 -784527.312500 0.000000 1.000000 
-1871.709512 -303.010601 -15.115356 12749171.000000 3.000000 3.000000 -783786.562500 0.000000 2.000000 
4657.518516 -365.175640 -15.191650 7322586.000000 3.000000 1.000000 -784492.437500 0.000000 1.000000 
1010.319785 -1187.825786 -16.966919 157472.000000 7.000000 7.000000 -784893.750000 0.000000 0.000000 
2015.815391 -1466.279293 -15.318848 10646785.000000 7.000000 7.000000 -784092.437500 0.000000 2.000000 
2710.758750 -402.473857 -16.807373 11233734.000000 7.000000 4.000000 -784004.500000 0.000000 2.000000 
-3635.402383 -1240.900096 -18.157227 14254518.000000 6.000000 6.000000 -783621.812500 0.000000 2.000000 
-3369.205850 -1103.922100 -13.896484 12767931.000000 3.000000 2.000000 -783783.062500 0.000000 2.000000 
-51.911660 -1397.804088 -17.092651 13937552.000000 7.000000 7.000000 -783653.375000 0.000000 2.000000 
-4209.011514 -742.599407 -11.458252 11594453.000000 1.000000 1.000000 -783949.187500 0.000000 2.000000 
5730.822227 -583.460063 -14.060669 8229431.000000 6.000000 1.000000 -784418.937500 0.000000 1.000000 
5054.498008 -917.181926 -9.573120 6416715.000000 3.000000 3.000000 -784543.750000 0.000000 1.000000 
-3611.297891 -276.678447 -27.883057 13951632.000000 1.000000 1.000000 -783650.812500 0.000000 2.000000 
-1698.564004 -510.776348 -17.173950 8605972.000000 1.000000 1.000000 -784378.625000 0.000000 1.000000 
4788.122031 -360.407329 -17.038818 13023208.000000 7.000000 7.000000 -783756.312500 0.000000 2.000000 
1680.399375 -1443.801204 -15.327881 10946525.000000 7.000000 6.000000 -784046.750000 0.000000 2.000000 
-4942.977334 -1328.783092 -17.006348 3310774.000000 6.000000 3.000000 -784710.500000 0.000000 0.000000 
-5354.600015 -1051.412090 -14.191650 1534157.000000 7.000000 7.000000 -784822.812500 0.000000 0.000000 
-3205.430215 -1113.296672 -14.199951 6834692.000000 1.000000 1.000000 -784525.312500 0.000000 1.000000 
2477.050742 -1245.058910 -17.788330 9154598.000000 6.000000 5.000000 -784310.875000 0.000000 2.000000 
-2335.594766 -420.110210 -16.325195 13645239.000000 4.000000 1.000000 -783682.562500 0.000000 2.000000 
1317.321250 -880.427776 -8.206543 14229590.000000 7.000000 5.000000 -783626.562500 0.000000 2.000000 
458.040000 -951.956279 -9.188721 10357970.000000 2.000000 1.000000 -784135.937500 0.000000 2.000000 
4269.005820 -745.699382 -11.563354 8539394.000000 4.000000 4.000000 -784386.437500 0.000000 1.000000 
5734.171836 -583.500713 -15.130493 4292282.000000 7.000000 4.000000 -784650.250000 0.000000 1.000000 
3363.996055 -1231.327312 -18.783081 13927538.000000 7.000000 7.000000 -783655.187500 0.000000 2.000000 
1019.094199 -1335.824810 -16.108276 9167970.000000 3.000000 1.000000 -784308.062500 0.000000 2.000000 
-4518.999063 -277.344097 -26.763916 7738456.000000 7.000000 7.000000 -784462.937500 0.000000 1.000000 
4339.381797 -1128.769817 -14.345093 8541563.000000 6.000000 3.000000 -784386.062500 0.000000 1.000000 
1887.549766 -740.545696 -10.451050 9453710.000000 3.000000 1.000000 -784267.500000 0.000000 2.000000 
-3697.561318 -480.557964 -17.854736 8326457.000000 1.000000 1.000000 -784408.312500 0.000000 1.000000 
-3803.781289 -413.502544 -17.256836 5958641.000000 1.000000 1.000000 -784568.687500 0.000000 1.000000 
3467.315391 -759.698528 -10.954468 4894082.000000 1.000000 1.000000 -784619.062500 0.000000 1.000000 
1595.782187 -1008.581890 -11.589478 357391.000000 4.000000 2.000000 -784880.312500 0.000000 0.000000 
-2034.839395 -524.923564 -16.889526 3124939.000000 1.000000 1.000000 -784721.375000 0.000000 0.000000 
4084.442344 -1281.774700 -18.684448 10039113.000000 7.000000 6.000000 -784183.875000 0.000000 2.000000 
-5129.314858 -1090.982708 -13.578247 14267471.000000 3.000000 2.000000 -783619.187500 0.000000 2.000000 
-3974.125771 -893.235271 -8.638916 10703071.000000 3.000000 2.000000 -784081.062500 0.000000 2.000000 
1497.873984 -1194.193401 -16.862183 13333661.000000 7.000000 6.000000 -783721.875000 0.000000 2.000000 
-2622.312539 -624.837505 -14.578979 2725472.000000 4.000000 4.000000 -784747.750000 0.000000 0.000000 
-3306.521523 -1144.740886 -15.150269 10695231.000000 3.000000 3.000000 -784082.687500 0.000000 2.000000 
-4248.887002 -1439.038402 -15.099365 2915910.000000 7.000000 5.000000 -784736.812500 0.000000 0.000000 
2921.551719 -310.071758 -14.979248 3770872.000000 1.000000 1.000000 -784681.812500 0.000000 0.000000 
-342.379922 -925.164470 -10.238159 11849668.000000 6.000000 6.000000 -783917.875000 0.000000 2.000000 
-2869.376504 -831.652385 -8.971191 747098.000000 7.000000 4.000000 -784862.000000 0.000000 0.000000 
-635.679238 -1219.532909 -16.780640 1934918.000000 1.000000 1.000000 -784799.187500 0.000000 0.000000 
-1709.478066 -548.360332 -15.989624 13344308.000000 4.000000 2.000000 -783719.250000 0.000000 2.000000 
-4663.362832 -417.790142 -17.512207 4772486.000000 2.000000 2.000000 -784620.937500 0.000000 1.000000 
-5317.552529 -277.316997 -31.950073 7146954.000000 7.000000 7.000000 -784503.812500 0.000000 1.000000 
5546.390586 -1261.119701 -17.371948 7327202.000000 7.000000 3.000000 -784491.437500 0.000000 1.000000 
-4613.048379 -1274.512310 -17.995850 14559789.000000 5.000000 3.000000 -783595.250000 0.000000 2.000000 
5564.873984 -311.391460 -13.623779 10327721.000000 7.000000 1.000000 -784141.687500 0.000000 2.000000 
-2898.655313 -913.840679 88.604858 12466091.000000 7.000000 2.000000 -783820.187500 0.000000 2.000000 
5120.632773 -298.183208 -15.223022 3985473.000000 4.000000 4.000000 -784668.750000 0.000000 1.000000 
-4676.209512 -505.577251 -17.221191 10711891.000000 2.000000 1.000000 -784079.312500 0.000000 2.000000 
5482.082969 -467.891094 -17.078369 4593563.000000 6.000000 1.000000 -784633.625000 0.000000 1.000000 
-1990.332070 -857.085674 -8.552490 10384853.000000 1.000000 1.000000 -784130.437500 0.000000 2.000000 
4316.425742 -550.111064 -16.392944 3984146.000000 3.000000 3.000000 -784669.000000 0.000000 1.000000 
4944.044883 -293.686260 -15.145020 8532883.000000 5.000000 4.000000 -784387.562500 0.000000 1.000000 
1873.943320 -714.476421 -12.410522 10941206.000000 7.000000 6.000000 -784047.875000 0.000000 2.000000 
-5119.572671 -1224.674999 -17.041504 8030842.000000 7.000000 5.000000 -784438.562500 0.000000 1.000000 
-4437.092080 -512.206035 -17.055054 4772277.000000 1.000000 1.000000 -784621.000000 0.000000 1.000000 
-469.691934 -575.428325 -15.723267 14233233.000000 7.000000 5.000000 -783625.812500 0.000000 2.000000 
-45.323770 -1213.440990 -16.505859 12146956.000000 7.000000 4.000000 -783880.187500 0.000000 2.000000 
-3431.196328 -831.751812 -8.911865 3118404.000000 4.000000 2.000000 -784722.437500 0.000000 0.000000 
-4350.577920 -440.445293 -17.783447 8925207.000000 6.000000 4.000000 -784339.375000 0.000000 2.000000 
-3425.358682 -545.879497 -16.325439 2921891.000000 6.000000 4.000000 -784735.187500 0.000000 0.000000 
-2965.624551 -274.915142 43.720947 3321173.000000 2.000000 2.000000 -784708.125000 0.000000 0.000000 
-4709.370400 -274.237163 88.189453 13963394.000000 1.000000 1.000000 -783648.375000 2.000000 2.000000 
4500.409141 -277.410503 -29.114014 13322738.000000 7.000000 6.000000 -783723.562500 0.000000 2.000000 
-2253.743203 -835.384014 -9.099609 10388073.000000 1.000000 1.000000 -784129.812500 0.000000 2.000000 
3928.351523 -1197.464092 -16.632324 8846553.000000 6.000000 5.000000 -784351.937500 0.000000 1.000000 
1388.129844 -746.684185 -10.817749 10944217.000000 6.000000 2.000000 -784047.187500 0.000000 2.000000 
1016.076133 -857.283611 -8.847900 11542856.000000 6.000000 5.000000 -783959.000000 0.000000 2.000000 
271.944785 -611.741680 -14.744751 12737755.000000 7.000000 5.000000 -783788.812500 0.000000 2.000000 
2822.873008 -363.098857 -15.088379 10039607.000000 7.000000 1.000000 -784183.812500 0.000000 2.000000 
-5517.508950 -907.412395 -8.237549 3707340.000000 6.000000 2.000000 -784684.312500 0.000000 0.000000 
-1778.019082 -1379.423595 -16.155151 2525144.000000 1.000000 1.000000 -784761.750000 0.000000 0.000000 
3858.162070 -456.607646 -17.827637 8842285.000000 4.000000 2.000000 -784352.562500 0.000000 1.000000 
-5442.960854 -826.189189 -9.630005 7142753.000000 4.000000 4.000000 -784504.750000 0.000000 1.000000 
-4672.466348 -546.832744 -17.234497 3315006.000000 6.000000 6.000000 -784709.250000 0.000000 0.000000 
5396.366172 -573.380229 -16.447021 4291303.000000 6.000000 6.000000 -784650.437500 0.000000 1.000000 
-4012.297158 -1231.000499 -16.179321 11591021.000000 3.000000 1.000000 -783949.875000 0.000000 2.000000 
-4457.438271 -607.494121 -14.703857 4177976.000000 3.000000 2.000000 -784653.875000 0.000000 1.000000 
-3968.097207 -1409.066600 -15.382935 10107088.000000 4.000000 2.000000 -784169.187500 0.000000 2.000000 
1984.685508 -477.108013 -18.052856 1155864.000000 1.000000 1.000000 -784839.750000 0.000000 0.000000 
472.029258 -780.765178 -10.641479 10950799.000000 4.000000 4.000000 -784045.812500 0.000000 2.000000 
-3798.444619 -751.304912 -10.253052 2129124.000000 7.000000 2.000000 -784787.000000 0.000000 0.000000 
-5117.094277 -1087.294109 -13.720825 14267331.000000 3.000000 3.000000 -783619.187500 0.000000 2.000000 
-3929.872109 -1152.813213 -15.462891 3313444.000000 3.000000 3.000000 -784709.875000 0.000000 0.000000 
-3571.635049 -495.628154 -17.930176 2723860.000000 6.000000 5.000000 -784748.125000 0.000000 0.000000 
1729.210898 -589.503765 -14.998657 11537535.000000 7.000000 4.000000 -783960.000000 0.000000 2.000000 
-2946.519570 -1024.952495 -11.930908 11874942.000000 1.000000 1.000000 -783913.125000 0.000000 2.000000 
965.781211 -1451.850704 -15.399780 13635501.000000 7.000000 6.000000 -783684.687500 0.000000 2.000000 
1160.883750 -615.984600 -14.536987 1747839.000000 1.000000 1.000000 -784808.812500 0.000000 0.000000 
-813.878457 -1017.234905 -12.544800 12151018.000000 6.000000 6.000000 -783879.437500 0.000000 2.000000 
-3226.265664 -1410.590801 -14.615112 10693690.000000 3.000000 1.000000 -784083.000000 0.000000 2.000000 
-787.267129 -1429.152904 -14.250000 10371900.000000 3.000000 1.000000 -784132.937500 0.000000 2.000000 
-2980.361855 -1356.349498 -15.618652 9208078.000000 4.000000 1.000000 -784299.437500 0.000000 2.000000 
-5548.294595 -910.392803 -9.580444 9226344.000000 7.000000 6.000000 -784296.062500 0.000000 2.000000 
-1554.610391 -1380.359386 -16.139282 9195060.000000 3.000000 2.000000 -784301.937500 0.000000 2.000000 
-4330.830605 -283.863140 -14.576660 8034486.000000 3.000000 2.000000 -784437.750000 0.000000 1.000000 
3101.360312 -1138.455486 -14.817993 8851805.000000 4.000000 3.000000 -784351.062500 0.000000 1.000000 
-1398.494668 -1295.215007 -17.147217 13644815.000000 7.000000 2.000000 -783682.687500 0.000000 2.000000 
-3296.358193 -697.496990 -12.581909 10696563.000000 1.000000 1.000000 -784082.437500 0.000000 2.000000 
-820.476113 -1277.651805 -18.701050 13641734.000000 7.000000 6.000000 -783683.375000 0.000000 2.000000 
-1740.261758 -573.566143 -15.522339 2728602.000000 1.000000 1.000000 -784747.187500 0.000000 0.000000 
-5394.896401 -1463.143993 82.896973 9222563.000000 3.000000 2.000000 -784296.750000 0.000000 2.000000 
3288.039023 -1209.890300 -16.852051 11833771.000000 7.000000 5.000000 -783921.125000 0.000000 2.000000 
-3599.483438 -1253.266613 -17.039063 547779.000000 7.000000 3.000000 -784871.937500 0.000000 0.000000 
1993.783164 -704.949321 -12.113403 11238705.000000 7.000000 4.000000 -784003.500000 0.000000 2.000000 
-611.065469 -1004.633586 -11.300659 13639214.000000 7.000000 4.000000 -783683.875000 0.000000 2.000000 
11.040977 -850.246501 -7.685913 11252009.000000 4.000000 1.000000 -784000.687500 0.000000 2.000000 
-3902.457314 -1121.709880 -13.376099 10107929.000000 5.000000 1.000000 -784169.062500 0.000000 2.000000 
4754.029258 -1209.563701 -16.796631 7026625.000000 3.000000 3.000000 -784509.437500 0.000000 1.000000 
898.870078 -1044.276775 -11.565918 13334852.000000 7.000000 2.000000 -783721.625000 0.000000 2.000000 
-2866.246133 -950.626018 -9.905640 2525187.000000 5.000000 3.000000 -784761.750000 0.000000 0.000000 
5712.412070 -949.920513 -10.154541 5809953.000000 5.000000 4.000000 -784574.750000 0.000000 1.000000 
-2596.828164 -276.694072 -22.327271 8023433.000000 7.000000 5.000000 -784439.937500 0.000000 1.000000 
3065.019492 -467.346538 -19.510742 11830482.000000 7.000000 7.000000 -783921.625000 0.000000 2.000000 
-2218.730996 -320.247051 -14.869385 13941408.000000 6.000000 2.000000 -783652.687500 0.000000 2.000000 
-5363.616616 -1093.420696 -14.522827 1534019.000000 7.000000 6.000000 -784822.812500 0.000000 0.000000 
4083.042930 -357.820659 -13.679443 14521697.000000 7.000000 2.000000 -783602.062500 0.000000 2.000000 
-959.380898 -1364.297191 -16.784546 11856738.000000 4.000000 4.000000 -783916.500000 0.000000 2.000000 
-4660.319131 -1312.884014 -17.730469 13967100.000000 3.000000 3.000000 -783647.625000 0.000000 2.000000 
-2255.083535 -844.221904 -8.839844 3519575.000000 1.000000 1.000000 -784695.187500 0.000000 0.000000 
-3835.784707 -1079.261028 -12.864746 8918207.000000 7.000000 3.000000 -784340.750000 0.000000 2.000000 
1371.754844 -779.774028 -9.426147 14228960.000000 7.000000 2.000000 -783626.687500 0.000000 2.000000 
1120.201133 -1465.076305 43.809326 7967362.000000 1.000000 1.000000 -784443.187500 1.000000 1.000000 
4237.909141 -535.875225 -17.057007 10332903.000000 7.000000 6.000000 -784140.937500 0.000000 2.000000 
3024.603477 -1391.016185 -14.707031 10342914.000000 7.000000 1.000000 -784139.187500 0.000000 2.000000 
-2086.484414 -1234.322094 -17.393799 11273781.000000 3.000000 3.000000 -783996.062500 0.000000 2.000000 
-5241.661416 -485.564678 -17.828247 4770384.000000 4.000000 3.000000 -784621.312500 0.000000 1.000000 
-4528.782021 -444.908672 -16.722046 9224177.000000 7.000000 1.000000 -784296.437500 0.000000 2.000000 
1303.033164 -697.434612 -12.719604 10349429.000000 4.000000 4.000000 -784137.812500 0.000000 2.000000 
5704.317344 -834.590129 -9.491943 13023837.000000 7.000000 6.000000 -783756.187500 0.000000 2.000000 
1333.634727 -633.194805 -13.906982 11837975.000000 7.000000 4.000000 -783920.375000 0.000000 2.000000 
1467.579062 -993.085613 -10.958252 9458820.000000 3.000000 2.000000 -784266.437500 0.000000 2.000000 
107.505332 -714.254070 -10.892578 949457.000000 5.000000 1.000000 -784850.750000 0.000000 0.000000 
-2399.071328 -870.065776 -8.827148 944899.000000 7.000000 6.000000 -784852.125000 0.000000 0.000000 
-2181.208535 -1466.546093 -26.071777 2721610.000000 7.000000 5.000000 -784748.750000 0.000000 0.000000 
-4031.304727 -1442.897808 -15.019775 4171399.000000 1.000000 1.000000 -784655.375000 0.000000 1.000000 
3507.827109 -1036.501506 -12.299072 4288791.000000 1.000000 1.000000 -784650.875000 0.000000 1.000000 
512.244102 -1003.463115 -11.627197 9764651.000000 3.000000 3.000000 -784222.500000 0.000000 2.000000 
2362.283164 -1316.726299 -17.480103 9155858.000000 4.000000 3.000000 -784310.625000 0.000000 2.000000 
-4866.893594 -1240.692302 -17.435425 8327292.000000 7.000000 5.000000 -784408.187500 0.000000 1.000000 
-3282.034219 -1014.151226 -13.227051 943564.000000 7.000000 7.000000 -784852.437500 0.000000 0.000000 
-1852.813516 -289.445537 -13.562256 2134923.000000 5.000000 1.000000 -784785.437500 0.000000 0.000000 
5666.516562 -778.589519 -9.237549 3990862.000000 7.000000 1.000000 -784667.687500 0.000000 1.000000 
-5130.353555 -548.050518 -16.667969 8928285.000000 7.000000 6.000000 -784338.812500 0.000000 2.000000 
-3524.944375 -507.195049 -18.790405 1142560.000000 7.000000 7.000000 -784842.375000 0.000000 0.000000 
-5036.280313 -1315.786693 -17.024658 10412917.000000 6.000000 2.000000 -784125.125000 0.000000 2.000000 
2971.713828 -277.190166 44.242310 8544439.000000 2.000000 1.000000 -784385.562500 0.000000 1.000000 
896.368613 -670.032085 -13.270752 9166993.000000 1.000000 1.000000 -784308.250000 0.000000 2.000000 
1068.108359 -276.641826 -31.704834 9755133.000000 1.000000 1.000000 -784225.000000 0.000000 2.000000 
-1446.386270 -864.122295 -8.333740 12452229.000000 4.000000 3.000000 -783823.187500 0.000000 2.000000 
-5191.004678 -1333.005596 -17.477295 10116256.000000 7.000000 6.000000 -784167.437500 0.000000 2.000000 
-1199.943887 -279.822490 86.807129 2136902.000000 3.000000 2.000000 -784785.125000 0.000000 0.000000 
-591.009316 -1036.841716 -11.796997 12744896.000000 7.000000 3.000000 -783787.375000 0.000000 2.000000 
-3521.952432 -1438.529705 -15.304688 8616324.000000 4.000000 4.000000 -784377.062500 0.000000 1.000000 
-3184.659951 -509.269878 -16.231445 13949530.000000 3.000000 1.000000 -783651.187500 0.000000 2.000000 
1820.194297 -784.747112 -10.272583 9454550.000000 3.000000 2.000000 -784267.375000 0.000000 2.000000 
-2065.236855 -359.334209 -14.890259 1936064.000000 7.000000 1.000000 -784798.937500 0.000000 0.000000 
-1174.790078 -386.591167 -16.510498 2931142.000000 1.000000 1.000000 -784734.000000 0.000000 0.000000 
-4651.894570 -585.840679 -15.280396 10117029.000000 4.000000 3.000000 -784167.250000 0.000000 2.000000 
150.617148 -1355.412090 -16.217773 11848756.000000 7.000000 3.000000 -783918.000000 0.000000 2.000000 
944.109824 -617.499980 -15.631714 13033573.000000 7.000000 7.000000 -783754.625000 0.000000 2.000000 
2992.233359 -1161.341808 -15.602539 11535712.000000 7.000000 5.000000 -783960.375000 0.000000 2.000000 
574.937949 -757.461589 -9.944458 11247248.000000 4.000000 1.000000 -784001.750000 0.000000 2.000000 
5164.643516 -754.556682 -11.252808 9434733.000000 7.000000 5.000000 -784270.812500 0.000000 2.000000 
-2554.931191 -1019.788677 -11.808350 11574572.000000 2.000000 1.000000 -783952.875000 0.000000 2.000000 
-4641.227822 -1186.207012 -15.040527 11301290.000000 3.000000 1.000000 -783990.875000 0.000000 2.000000 
-2182.223184 -1039.484600 -12.125732 2130369.000000 5.000000 3.000000 -784786.625000 0.000000 0.000000 
-5231.321450 -358.999492 -16.280884 11014571.000000 2.000000 2.000000 -784032.687500 0.000000 2.000000 
-412.263711 -1248.474987 -16.485962 11554688.000000 6.000000 1.000000 -783956.625000 0.000000 2.000000 
678.036094 -553.512065 -15.896973 12437175.000000 7.000000 4.000000 -783826.062500 0.000000 2.000000 
-1709.277383 -839.025005 -9.002930 10677033.000000 1.000000 1.000000 -784086.000000 0.000000 2.000000 
3229.738242 -494.590557 -17.605835 7634231.000000 1.000000 1.000000 -784469.437500 0.000000 1.000000 
-108.756387 -1356.911510 -16.915405 10661699.000000 3.000000 3.000000 -784089.125000 0.000000 2.000000 
-744.386758 -1020.068889 -10.892944 11259430.000000 4.000000 1.000000 -783999.125000 0.000000 2.000000 
-4315.378457 -1282.370891 -17.200439 1928931.000000 7.000000 2.000000 -784800.937500 0.000000 0.000000 
-2223.864785 -1463.299099 -14.549561 12758688.000000 4.000000 3.000000 -783784.875000 0.000000 2.000000 
-2401.034219 -744.557415 -11.406982 10094353.000000 1.000000 1.000000 -784171.500000 0.000000 2.000000 
-4896.058633 -1436.607601 -14.570068 9518245.000000 7.000000 3.000000 -784254.937500 0.000000 2.000000 
3876.044883 -1257.613201 -18.275146 9741544.000000 7.000000 6.000000 -784227.812500 0.000000 2.000000 
1067.944785 -1466.861705 -18.260742 947344.000000 7.000000 3.000000 -784851.375000 0.000000 0.000000 
-933.564980 -461.044658 -18.419678 12445789.000000 4.000000 4.000000 -783824.437500 0.000000 2.000000 
5406.221641 -514.676616 -15.936646 5503004.000000 4.000000 1.000000 -784590.687500 0.000000 1.000000 
-5281.405435 -1014.909526 -10.778442 14565041.000000 3.000000 1.000000 -783594.187500 0.000000 2.000000 
-294.759316 -408.283428 -17.538574 13335765.000000 7.000000 6.000000 -783721.437500 0.000000 2.000000 
4800.506797 -527.916851 -16.791260 8535193.000000 5.000000 4.000000 -784387.125000 0.000000 1.000000 
2444.603477 -1466.791896 88.857910 11539422.000000 5.000000 4.000000 -783959.687500 0.000000 2.000000 
-4647.798135 -1159.511608 -15.725952 8624512.000000 7.000000 6.000000 -784375.562500 0.000000 1.000000 
1234.885703 -1217.191692 -16.572266 10650357.000000 6.000000 3.000000 -784091.687500 0.000000 2.000000 
-4739.624551 -649.191509 -13.925659 6845606.000000 2.000000 2.000000 -784523.187500 0.000000 1.000000 
-2662.958535 -451.945903 -18.004150 2528177.000000 5.000000 4.000000 -784761.000000 0.000000 0.000000 
-2877.233438 -674.869487 -13.139648 12761002.000000 1.000000 1.000000 -783784.437500 0.000000 2.000000 
-3648.594766 -708.405681 -12.277466 7137580.000000 1.000000 1.000000 -784506.000000 0.000000 1.000000 
-5330.895425 -523.698589 -15.711670 5066834.000000 4.000000 1.000000 -784606.937500 0.000000 1.000000 
2769.030234 -731.313701 -11.922363 9446848.000000 4.000000 4.000000 -784268.875000 0.000000 2.000000 
5443.998984 -1046.978679 -11.998657 3783977.000000 5.000000 2.000000 -784680.125000 0.000000 0.000000 
-1518.631387 -1253.190410 -18.772827 14241494.000000 7.000000 7.000000 -783624.312500 0.000000 2.000000 
-3184.835000 -1093.583477 -14.229492 1733294.000000 7.000000 6.000000 -784811.562500 0.000000 0.000000 
5102.036094 -1332.770702 -16.374634 14524076.000000 7.000000 4.000000 -783601.687500 0.000000 2.000000 
38.239219 -891.638408 -8.672363 948399.000000 5.000000 4.000000 -784851.062500 0.000000 0.000000 
-4265.923379 -1006.546428 -11.854370 8325824.000000 6.000000 5.000000 -784408.437500 0.000000 1.000000 
2199.497031 -1296.123302 -16.854980 13332120.000000 7.000000 2.000000 -783722.125000 0.000000 2.000000 
3572.350547 -1197.049388 -16.364502 9146756.000000 7.000000 5.000000 -784312.312500 0.000000 2.000000 
-2680.692422 -413.564800 -17.329712 1934591.000000 7.000000 5.000000 -784799.312500 0.000000 0.000000 
-4846.915322 -964.936077 -10.298340 9520626.000000 7.000000 4.000000 -784254.500000 0.000000 2.000000 
-2352.855508 -1105.526470 -14.049438 1931970.000000 6.000000 4.000000 -784800.062500 0.000000 0.000000 
-5478.936318 -722.116375 -12.228149 7143663.000000 4.000000 4.000000 -784504.500000 0.000000 1.000000 
-610.897012 -942.570598 -10.479004 353983.000000 7.000000 6.000000 -784881.250000 0.000000 0.000000 
-3611.056191 -325.048687 -15.466064 6255162.000000 1.000000 1.000000 -784555.312500 0.000000 1.000000 
-2187.914102 -816.958782 -8.351440 14242406.000000 6.000000 1.000000 -783624.125000 0.000000 2.000000 
-1045.758828 -909.471782 -8.555054 946419.000000 7.000000 3.000000 -784851.687500 0.000000 0.000000 
55.477988 -1463.402599 87.935547 1935334.000000 4.000000 3.000000 -784799.125000 0.000000 0.000000 
-1920.121621 -1023.031902 -11.885010 8903512.000000 3.000000 2.000000 -784343.437500 0.000000 2.000000 
-4476.887979 -1043.216777 -12.368652 6544607.000000 1.000000 1.000000 -784540.375000 0.000000 1.000000 
528.534629 -1223.586498 -18.110229 13038613.000000 7.000000 7.000000 -783753.562500 0.000000 2.000000 
-5198.647866 -1447.527599 -14.915894 7732082.000000 5.000000 3.000000 -784464.375000 0.000000 1.000000 
-4173.290566 -762.739971 -10.710327 1931047.000000 7.000000 4.000000 -784800.375000 0.000000 0.000000 
-3917.619912 -948.363506 -9.849609 9514678.000000 6.000000 3.000000 -784255.625000 0.000000 2.000000 
5034.242148 -953.548870 -10.010986 8839201.000000 7.000000 4.000000 -784353.062500 0.000000 1.000000 
-1445.588418 -276.606792 -31.113525 12745600.000000 1.000000 1.000000 -783787.250000 0.000000 2.000000 
1183.101523 -590.153545 -14.296387 13331422.000000 7.000000 2.000000 -783722.250000 0.000000 2.000000 
862.990684 -478.785259 -17.128540 12734394.000000 7.000000 2.000000 -783789.437500 0.000000 2.000000 
-5408.706460 -1035.012004 -10.909790 3311509.000000 7.000000 1.000000 -784710.312500 0.000000 0.000000 
75.998008 -1264.428905 -18.399414 12444455.000000 7.000000 6.000000 -783824.687500 0.000000 2.000000 
1582.874961 -499.086162 -17.724365 10643638.000000 4.000000 4.000000 -784093.187500 0.000000 2.000000 
-539.387246 -532.987773 -16.379150 1344827.000000 6.000000 3.000000 -784831.187500 0.000000 0.000000 
-2897.712930 -726.936809 1.259521 13057871.000000 4.000000 3.000000 -783750.125000 0.000000 2.000000 
3542.430625 -1011.530925 -11.658447 6117052.000000 1.000000 1.000000 -784559.625000 0.000000 1.000000 
-910.546426 -506.873149 -15.680054 157745.000000 7.000000 1.000000 -784893.687500 0.000000 0.000000 
-3558.254434 -685.571575 -11.763550 1141916.000000 7.000000 2.000000 -784842.500000 0.000000 0.000000 
-3560.167764 -1012.323772 -11.646851 8321556.000000 3.000000 2.000000 -784409.250000 0.000000 1.000000 
-4359.284219 -290.863750 -14.951172 4774657.000000 2.000000 2.000000 -784620.625000 0.000000 1.000000 
1078.123008 -1213.772991 -15.615234 10354118.000000 6.000000 1.000000 -784136.750000 0.000000 2.000000 
3606.308555 -837.633220 -9.020264 5809822.000000 1.000000 1.000000 -784574.812500 0.000000 1.000000 
5489.962852 -1215.303508 -16.774902 3993803.000000 4.000000 3.000000 -784667.125000 0.000000 1.000000 
-4182.833291 -1465.482799 -18.416870 4762899.000000 4.000000 3.000000 -784622.875000 0.000000 1.000000 
-1792.702188 -1259.444805 -17.672852 943980.000000 7.000000 4.000000 -784852.312500 0.000000 0.000000 
-3615.005898 -1172.955791 -14.729980 12770731.000000 3.000000 1.000000 -783782.500000 0.000000 2.000000 
-2373.640664 -767.859905 -10.178467 945313.000000 7.000000 3.000000 -784852.000000 0.000000 0.000000 
3425.612266 -529.257671 -16.644287 8845646.000000 2.000000 1.000000 -784352.062500 0.000000 1.000000 
5192.677695 -348.337261 -15.330200 10627951.000000 7.000000 3.000000 -784096.312500 0.000000 2.000000 
-4158.852578 -1118.448101 -15.269043 2917612.000000 6.000000 6.000000 -784736.375000 0.000000 0.000000 
1874.382773 -1050.285930 -12.120850 11539634.000000 7.000000 3.000000 -783959.625000 0.000000 2.000000 
-5482.686440 -1004.322124 -12.535767 9225504.000000 7.000000 7.000000 -784296.187500 0.000000 2.000000 
-1617.197305 -1370.196300 -16.343750 11269230.000000 3.000000 2.000000 -783997.000000 0.000000 2.000000 
-833.401895 -1388.980297 -16.495850 746917.000000 7.000000 6.000000 -784862.062500 0.000000 0.000000 
1690.539023 -318.210918 -15.120850 13029442.000000 4.000000 3.000000 -783755.375000 0.000000 2.000000 
-3907.117959 -1055.019390 -10.891357 745579.000000 7.000000 1.000000 -784862.437500 0.000000 0.000000 
-4147.553018 -1445.928798 -14.832153 11592000.000000 3.000000 2.000000 -783949.687500 0.000000 2.000000 
-4204.054482 -786.464397 -8.416992 943609.000000 7.000000 1.000000 -784852.437500 0.000000 0.000000 
-2902.529824 -1142.392803 -14.923462 3884613.000000 1.000000 1.000000 -784672.062500 0.000000 1.000000 
-2967.132363 -778.863689 -10.352417 10692433.000000 1.000000 1.000000 -784083.250000 0.000000 2.000000 
-4567.039346 -895.600811 -9.381226 2127651.000000 7.000000 6.000000 -784787.437500 0.000000 0.000000 
1404.876914 -989.254985 -11.634155 12436683.000000 7.000000 6.000000 -783826.187500 0.000000 2.000000 
4587.147422 -389.798442 -16.946533 3580061.000000 2.000000 2.000000 -784693.875000 0.000000 0.000000 
5442.044883 -1299.939495 -16.709473 3587512.000000 4.000000 1.000000 -784692.562500 0.000000 0.000000 
1917.762656 -796.665874 -10.030640 8255902.000000 1.000000 1.000000 -784414.937500 0.000000 1.000000 
3657.557578 -1036.900676 -12.599121 8847324.000000 4.000000 4.000000 -784351.812500 0.000000 1.000000 
2992.340781 -1218.297313 -15.730347 8853065.000000 4.000000 1.000000 -784350.875000 0.000000 1.000000 
856.357871 -1045.492900 -12.490967 8270603.000000 1.000000 1.000000 -784413.625000 0.000000 1.000000 
-149.165078 -948.681926 -9.589966 12443896.000000 7.000000 3.000000 -783824.812500 0.000000 2.000000 
-4560.231240 -1118.895977 -14.120728 9815677.000000 6.000000 3.000000 -784211.500000 0.000000 2.000000 
-3969.380410 -1366.708995 -15.516602 1731453.000000 7.000000 2.000000 -784812.000000 0.000000 0.000000 
4569.185508 -981.314006 -11.267334 8841652.000000 7.000000 6.000000 -784352.687500 0.000000 1.000000 
2880.768516 -274.700176 83.067139 11829922.000000 7.000000 6.000000 -783921.750000 0.000000 2.000000 
-5012.774453 -1433.835506 -14.303345 8922614.000000 7.000000 2.000000 -784339.812500 0.000000 2.000000 
3101.117148 -1024.933391 106.240845 8246447.000000 4.000000 1.000000 -784416.062500 0.000000 1.000000 
-1153.204141 -998.445903 -11.125977 12450758.000000 6.000000 3.000000 -783823.437500 0.000000 2.000000 
1320.621055 -588.306743 -15.060913 12733343.000000 7.000000 4.000000 -783789.625000 0.000000 2.000000 
1780.070273 -1353.377391 -16.534424 10945475.000000 7.000000 4.000000 -784046.937500 0.000000 2.000000 
-30.976602 -1466.161006 -25.531860 1736797.000000 7.000000 7.000000 -784810.625000 0.000000 0.000000 
3930.734336 -534.275249 -15.360107 9736995.000000 7.000000 1.000000 -784228.562500 0.000000 2.000000 
3586.407187 -369.859478 -16.389160 4585730.000000 1.000000 1.000000 -784634.562500 0.000000 1.000000 
-27.792031 -1063.178203 -12.893799 9178682.000000 1.000000 1.000000 -784306.000000 0.000000 2.000000 
-5573.972695 -297.463359 -14.684082 4176572.000000 6.000000 3.000000 -784654.125000 0.000000 1.000000 
-5205.705239 -627.025127 -14.398560 11309411.000000 2.000000 2.000000 -783989.125000 0.000000 2.000000 
-181.097695 -427.525371 -17.275269 11845329.000000 4.000000 2.000000 -783918.687500 0.000000 2.000000 
-1434.631387 -1217.176189 -16.741089 1933030.000000 3.000000 2.000000 -784799.750000 0.000000 0.000000 
4153.846641 -476.173564 -18.073120 3181290.000000 1.000000 1.000000 -784720.437500 0.000000 0.000000 
-2239.637734 -1254.621593 -16.400269 1536139.000000 7.000000 1.000000 -784822.312500 0.000000 0.000000 
-4035.939980 -568.344341 -15.988159 3514418.000000 4.000000 4.000000 -784695.937500 0.000000 0.000000 
1492.257773 -606.851787 -14.895264 12135544.000000 7.000000 5.000000 -783882.375000 0.000000 2.000000 
-182.381387 -276.632915 -18.269775 10065305.000000 1.000000 1.000000 -784177.437500 0.000000 2.000000 
-1796.336953 -1463.501094 34.846802 10382470.000000 1.000000 1.000000 -784130.937500 0.000000 2.000000 
-1950.063027 -572.325908 -15.665649 9793774.000000 1.000000 1.000000 -784215.625000 0.000000 2.000000 
5655.366172 -1463.666896 38.361328 10931399.000000 5.000000 5.000000 -784049.625000 0.000000 2.000000 
3153.624961 -1262.753307 -19.013916 10341584.000000 7.000000 7.000000 -784139.437500 0.000000 2.000000 
-4716.572793 -1274.303905 -17.741943 11004909.000000 5.000000 2.000000 -784034.625000 0.000000 2.000000 
-1640.986367 -1463.213100 39.280518 14541513.000000 3.000000 3.000000 -783598.750000 0.000000 2.000000 
4836.415977 -687.576580 -12.963867 6414896.000000 2.000000 2.000000 -784544.062500 0.000000 1.000000 
-1120.382852 -548.343853 -15.014771 13937135.000000 7.000000 1.000000 -783653.437500 0.000000 2.000000 
-815.939004 -1268.912914 -17.579956 13641664.000000 7.000000 3.000000 -783683.375000 0.000000 2.000000 
4254.647422 -1169.410411 -15.646484 3385254.000000 1.000000 1.000000 -784706.250000 0.000000 0.000000 
5251.051719 -1132.915203 -14.436035 7327203.000000 4.000000 2.000000 -784491.437500 0.000000 1.000000 
-4094.616982 -1456.005504 -14.628418 11591440.000000 3.000000 2.000000 -783949.750000 0.000000 2.000000 
4964.830039 -1045.132610 -10.451660 11828589.000000 7.000000 1.000000 -783921.937500 0.000000 2.000000 
1046.260703 -648.646526 -13.684448 952311.000000 3.000000 2.000000 -784850.000000 0.000000 0.000000 
-705.751504 -908.345073 -8.895630 14236033.000000 7.000000 4.000000 -783625.250000 0.000000 2.000000 
1851.850547 -1297.607311 -17.389526 10051507.000000 6.000000 2.000000 -784180.625000 0.000000 2.000000 
-3533.230020 -547.452251 -16.390503 9811061.000000 2.000000 2.000000 -784212.375000 0.000000 2.000000 
-4988.276406 -1464.694103 -13.999634 8922334.000000 6.000000 3.000000 -784339.875000 0.000000 2.000000 
5354.983359 -489.751445 -16.558350 5199554.000000 4.000000 1.000000 -784604.500000 0.000000 1.000000 
5089.856406 -527.895488 -17.619629 12724028.000000 7.000000 7.000000 -783791.125000 0.000000 2.000000 
1135.395469 -643.744792 -14.141357 11242907.000000 6.000000 5.000000 -784002.625000 0.000000 2.000000 
1127.373984 -286.849468 -14.687988 1949089.000000 1.000000 1.000000 -784797.000000 0.000000 0.000000 
-1522.522500 -276.578350 -26.236450 10673536.000000 1.000000 1.000000 -784086.750000 0.000000 2.000000 
4028.188437 -1172.868511 -15.925537 11233521.000000 7.000000 5.000000 -784004.500000 0.000000 2.000000 
-2791.317422 -984.127788 -12.168457 1536644.000000 7.000000 7.000000 -784822.187500 0.000000 0.000000 
3509.286094 -800.184185 -8.011353 13925438.000000 7.000000 2.000000 -783655.437500 0.000000 2.000000 
-4311.335732 -1100.755901 -13.655151 14556359.000000 5.000000 3.000000 -783595.875000 0.000000 2.000000 
-1534.231973 -277.018901 89.975952 157836.000000 7.000000 3.000000 -784893.687500 0.000000 0.000000 
-1535.402383 -276.633892 89.523682 157836.000000 7.000000 4.000000 -784893.687500 0.000000 0.000000 
-2772.827188 -1020.753704 -11.824951 12465181.000000 3.000000 2.000000 -783820.375000 0.000000 2.000000 
94.257285 -1346.709911 -15.615845 550682.000000 6.000000 1.000000 -784871.125000 0.000000 0.000000 
5001.369102 -713.234905 -12.327759 10630401.000000 7.000000 5.000000 -784095.937500 0.000000 2.000000 
-1972.941934 -277.095684 44.292480 8610662.000000 2.000000 1.000000 -784377.937500 0.000000 1.000000 
4811.077109 -505.237529 -17.524292 6716666.000000 2.000000 2.000000 -784528.562500 0.000000 1.000000 
-3497.766641 -1466.720302 -28.859863 3877261.000000 7.000000 5.000000 -784674.125000 0.000000 1.000000 
-1381.459023 -1069.575908 -13.121216 12155779.000000 5.000000 4.000000 -783878.062500 0.000000 2.000000 
-1935.656777 -1373.417003 -15.354248 9495290.000000 3.000000 1.000000 -784259.250000 0.000000 2.000000 
-4078.987588 -1129.163616 -14.530151 11295831.000000 3.000000 2.000000 -783992.062500 0.000000 2.000000 
-1722.321328 -1258.892009 -17.050659 13944415.000000 7.000000 2.000000 -783652.125000 0.000000 2.000000 
3717.148398 -763.577312 -10.681763 10634813.000000 7.000000 4.000000 -784095.250000 0.000000 2.000000 
-5304.927041 -495.455913 -17.564209 13381275.000000 1.000000 1.000000 -783711.750000 0.000000 2.000000 
4246.700156 -1248.205394 -17.472412 4294038.000000 1.000000 1.000000 -784649.875000 0.000000 1.000000 
26.900840 -1294.384807 -17.940063 10660229.000000 5.000000 3.000000 -784089.437500 0.000000 2.000000 
2764.882773 -1292.065990 -18.081055 10641884.000000 7.000000 5.000000 -784093.687500 0.000000 2.000000 
-142.341348 -734.733623 -11.039429 157838.000000 7.000000 3.000000 -784893.625000 0.000000 0.000000 
1476.633750 -907.843120 -9.337646 10349428.000000 6.000000 5.000000 -784137.812500 0.000000 2.000000 
1666.523398 -1312.304302 -18.019775 11542084.000000 7.000000 6.000000 -783959.125000 0.000000 2.000000 
-504.934121 -1462.594295 84.068115 10369169.000000 2.000000 1.000000 -784133.500000 0.000000 2.000000 
3715.893516 -1147.032329 -14.440552 12131200.000000 7.000000 4.000000 -783883.187500 0.000000 2.000000 
2798.388633 -1032.253521 -12.133545 8853556.000000 3.000000 2.000000 -784350.812500 0.000000 1.000000 
1611.271445 -459.840557 -18.220337 1154115.000000 1.000000 1.000000 -784839.937500 0.000000 0.000000 
3896.187461 -843.396770 -7.948730 10933362.000000 7.000000 2.000000 -784049.312500 0.000000 2.000000 
-54.615762 -572.791851 -16.507935 13037355.000000 7.000000 7.000000 -783753.812500 0.000000 2.000000 
-4454.210977 -1108.276714 -14.282104 7137226.000000 3.000000 3.000000 -784506.062500 0.000000 1.000000 
5006.631797 -1370.652599 -16.594849 9737342.000000 7.000000 5.000000 -784228.500000 0.000000 2.000000 
-4869.096719 -1165.760295 -16.335815 10115067.000000 6.000000 6.000000 -784167.625000 0.000000 2.000000 
-3266.338418 -811.686687 -8.672241 13655110.000000 3.000000 1.000000 -783680.562500 0.000000 2.000000 
4845.222617 -1078.814006 -13.272949 4900936.000000 2.000000 1.000000 -784617.937500 0.000000 1.000000 
5430.222617 -294.758159 -14.849731 6107454.000000 4.000000 3.000000 -784561.812500 0.000000 1.000000 
364.668418 -490.888286 -16.445679 12736565.000000 7.000000 1.000000 -783789.062500 0.000000 2.000000 
1383.453086 -451.291118 -18.071411 11538306.000000 7.000000 5.000000 -783959.875000 0.000000 2.000000 
-798.325723 -495.142681 -17.567505 9483605.000000 1.000000 1.000000 -784261.500000 0.000000 2.000000 
-4953.794717 -792.968181 -9.610840 8925975.000000 7.000000 3.000000 -784339.187500 0.000000 2.000000 
-1730.479531 -791.706401 -10.633545 1341283.000000 7.000000 6.000000 -784832.187500 0.000000 0.000000 
5560.040977 -1123.042278 -14.463623 4296133.000000 4.000000 3.000000 -784649.375000 0.000000 1.000000 
4044.520469 -704.531108 -13.182007 9141086.000000 7.000000 7.000000 -784313.250000 0.000000 2.000000 
-1578.661172 -848.887004 -8.221069 14537804.000000 7.000000 3.000000 -783599.375000 0.000000 2.000000 
-1722.689980 -662.397930 -13.251465 10086164.000000 1.000000 1.000000 -784173.062500 0.000000 2.000000 
3133.401328 -375.110332 -15.364746 9442088.000000 6.000000 1.000000 -784269.687500 0.000000 2.000000 
2963.488242 -274.862651 41.140381 13624649.000000 7.000000 7.000000 -783687.750000 0.000000 2.000000 
-5012.186807 -700.139995 -10.380249 745946.000000 7.000000 2.000000 -784862.375000 0.000000 0.000000 
3431.673789 -770.236125 -10.665039 5808983.000000 1.000000 1.000000 -784575.062500 0.000000 1.000000 
4676.087852 -675.614116 -13.756104 11528290.000000 7.000000 6.000000 -783961.562500 0.000000 2.000000 
1009.481895 -764.900005 -10.598267 11244447.000000 6.000000 3.000000 -784002.312500 0.000000 2.000000 
1423.469687 -647.308513 -13.517578 10645668.000000 4.000000 2.000000 -784092.687500 0.000000 2.000000 
5821.270469 -483.334941 -17.299927 8833110.000000 7.000000 3.000000 -784354.062500 0.000000 1.000000 
-4827.389688 -1443.761592 -13.750854 7730543.000000 4.000000 1.000000 -784464.750000 0.000000 1.000000 
-3806.826943 -1147.977092 -14.845215 9215287.000000 6.000000 3.000000 -784298.125000 0.000000 2.000000 
-2161.006387 -1446.962993 -14.620605 9200659.000000 3.000000 2.000000 -784300.875000 0.000000 2.000000 
1622.785117 -957.751689 -10.332275 8260382.000000 1.000000 1.000000 -784414.437500 0.000000 1.000000 
-4097.334023 -1123.668987 -14.393677 11296041.000000 3.000000 2.000000 -783992.000000 0.000000 2.000000 
3099.911094 -1220.155193 -16.716309 13329529.000000 7.000000 5.000000 -783722.625000 0.000000 2.000000 
-5127.702676 -1456.611797 -14.423462 8327151.000000 6.000000 3.000000 -784408.187500 0.000000 1.000000 
400.123984 -313.664775 -14.707153 13631163.000000 7.000000 3.000000 -783685.687500 0.000000 2.000000 
5702.133750 -1226.552196 -16.804565 7023822.000000 7.000000 4.000000 -784509.937500 0.000000 1.000000 
3845.049766 -440.371074 -17.807373 9140457.000000 7.000000 5.000000 -784313.312500 0.000000 2.000000 
3706.310508 -1009.504924 -11.763550 10039254.000000 7.000000 5.000000 -784183.875000 0.000000 2.000000 
5211.709922 -1060.115581 -12.682739 9734962.000000 7.000000 4.000000 -784228.875000 0.000000 2.000000 
4560.397422 -533.358135 -16.551636 7930815.000000 2.000000 1.000000 -784447.125000 0.000000 1.000000 
-165.622598 -1340.345195 -15.716919 13042394.000000 7.000000 1.000000 -783752.875000 0.000000 2.000000 
-1084.012734 -333.574077 -14.787354 10667865.000000 3.000000 3.000000 -784087.875000 0.000000 2.000000 
970.017539 -794.773113 -10.002441 9759121.000000 1.000000 1.000000 -784223.937500 0.000000 2.000000 
-4563.071816 -672.915691 -13.041626 14556291.000000 1.000000 1.000000 -783595.937500 0.000000 2.000000 
-10.842324 -515.973613 -17.442871 13036795.000000 7.000000 6.000000 -783753.937500 0.000000 2.000000 
-3343.917275 -764.786479 -11.038574 9214169.000000 4.000000 4.000000 -784298.312500 0.000000 2.000000 
-4095.786172 -415.671489 -17.173828 4181267.000000 1.000000 1.000000 -784653.312500 0.000000 1.000000 
