ply
format ascii 1.0
comment Created by CloudCompare v2.12 alpha
comment Created 6/15/2021 10:59 PM
obj_info Generated by CloudCompare!
element vertex 506
property double x
property double y
property double z
property float scalar_fullwaveIndex
property float scalar_NumberOfReturns
property float scalar_ReturnNumber
property float scalar_GpsTime
property float scalar_Intensity
end_header
-668.571816 -632.502300 -108.071289 510493.000000 1.000000 1.000000 -1250946.000000 0.000000 
-1527.535684 -559.756450 -108.062378 494531.000000 2.000000 1.000000 -1250951.250000 0.000000 
2814.920859 -1048.007427 -107.948364 132607.000000 1.000000 1.000000 -1251097.375000 7.000000 
4725.470664 -687.292827 -107.970215 40210.000000 1.000000 1.000000 -1251145.125000 11.000000 
1175.730430 -652.062297 -108.640625 181090.000000 6.000000 1.000000 -1251080.750000 0.000000 
-1751.050820 -442.322734 -67.902588 424056.000000 1.000000 1.000000 -1250972.875000 0.000000 
-603.452676 -507.084209 -107.916382 511054.000000 1.000000 1.000000 -1250945.875000 0.000000 
-2669.711953 -417.787456 -63.212891 431611.000000 3.000000 3.000000 -1250969.000000 0.000000 
2516.870078 -1093.992778 -107.749146 200202.000000 5.000000 5.000000 -1251074.750000 0.000000 
-4359.643594 -726.719280 -107.754395 472544.000000 7.000000 5.000000 -1250957.000000 0.000000 
5577.513633 -1245.653606 -107.445923 302174.000000 7.000000 7.000000 -1251051.625000 0.000000 
-659.765664 -273.895732 43.209961 167368.000000 3.000000 3.000000 -1251084.500000 0.000000 
2643.405234 -1259.770397 -75.016846 141636.000000 1.000000 1.000000 -1251092.250000 6.000000 
4196.337852 -584.086895 -107.966431 64923.000000 1.000000 1.000000 -1251131.500000 16.000000 
3348.365195 -476.801738 -73.985840 769181.000000 7.000000 7.000000 -1250907.875000 0.000000 
4688.757773 -726.113079 -107.955444 40281.000000 1.000000 1.000000 -1251145.000000 12.000000 
-1197.627480 -624.495952 -107.987061 419861.000000 1.000000 1.000000 -1250975.250000 4.000000 
3327.572227 -564.307964 -107.828857 573486.000000 7.000000 5.000000 -1250924.500000 0.000000 
-1380.752969 -1323.856304 -63.921509 443943.000000 1.000000 1.000000 -1250963.250000 6.000000 
5282.340781 -313.664287 -45.681641 254387.000000 1.000000 1.000000 -1251056.875000 2.000000 
3580.092734 -714.837810 -107.990356 98454.000000 1.000000 1.000000 -1251111.625000 15.000000 
3085.086875 -912.936870 -107.627930 568306.000000 7.000000 6.000000 -1250925.500000 0.000000 
4841.907187 -551.370830 -107.949951 40347.000000 1.000000 1.000000 -1251145.000000 8.000000 
5293.245078 -804.851177 -107.363647 783674.000000 7.000000 7.000000 -1250904.750000 0.000000 
3581.512656 -284.728374 -40.909668 315618.000000 7.000000 3.000000 -1251045.000000 0.000000 
1700.650352 -674.385906 -108.509521 556690.000000 3.000000 1.000000 -1250929.250000 0.000000 
-3844.493447 -535.296855 -108.772461 473245.000000 7.000000 1.000000 -1250956.875000 0.000000 
-124.765176 -287.082866 -41.138550 379896.000000 1.000000 1.000000 -1250999.375000 5.000000 
2664.333945 -1404.797313 -49.953247 146607.000000 1.000000 1.000000 -1251089.000000 7.000000 
-463.032754 -505.766582 -108.254028 170167.000000 7.000000 3.000000 -1251083.875000 0.000000 
-863.636758 -659.328472 -107.967163 413145.000000 1.000000 1.000000 -1250978.875000 9.000000 
5105.089805 -561.795635 -107.666626 779544.000000 6.000000 5.000000 -1250905.625000 0.000000 
4243.501914 -930.276592 -108.866821 575164.000000 7.000000 1.000000 -1250924.125000 0.000000 
4840.548789 -550.099834 -107.908691 40417.000000 1.000000 1.000000 -1251145.000000 6.000000 
2260.281211 -1391.216808 -52.299561 147022.000000 1.000000 1.000000 -1251088.625000 2.000000 
-5207.645913 -1456.008007 -41.341309 449595.000000 7.000000 6.000000 -1250958.875000 0.000000 
-1583.422402 -1031.350322 -108.536865 498309.000000 5.000000 1.000000 -1250950.125000 0.000000 
4686.485312 -724.096782 -107.955200 40421.000000 1.000000 1.000000 -1251145.000000 13.000000 
4652.786094 -762.159221 -107.978882 40422.000000 1.000000 1.000000 -1251145.000000 14.000000 
2846.102500 -594.264629 -108.204712 314710.000000 5.000000 2.000000 -1251045.500000 0.000000 
3145.844687 -1393.168102 -52.169556 301620.000000 2.000000 1.000000 -1251052.000000 0.000000 
5038.837852 -322.664531 -47.250000 40484.000000 1.000000 1.000000 -1251145.000000 2.000000 
-2044.936563 -1040.878582 -107.914551 439455.000000 1.000000 1.000000 -1250965.125000 1.000000 
2633.522422 -276.586895 -35.698486 193697.000000 1.000000 1.000000 -1251076.625000 3.000000 
2573.584922 -330.507061 -48.505737 570479.000000 1.000000 1.000000 -1250925.125000 0.000000 
2249.998008 -494.483745 -101.244141 565369.000000 1.000000 1.000000 -1250926.250000 1.000000 
-4954.689736 -1067.279888 -108.004883 472823.000000 7.000000 5.000000 -1250957.000000 0.000000 
254.134238 -457.261699 -70.534668 363588.000000 1.000000 1.000000 -1251009.750000 7.000000 
3539.187461 -1181.956707 -107.852417 304278.000000 6.000000 4.000000 -1251050.125000 0.000000 
-3233.701699 -1192.275188 -107.882568 445469.000000 5.000000 3.000000 -1250962.375000 0.000000 
-2464.724648 -431.887676 -65.156250 163865.000000 7.000000 7.000000 -1251085.000000 0.000000 
4869.181602 -1232.122112 -107.444702 575583.000000 7.000000 7.000000 -1250924.000000 0.000000 
5505.788047 -580.165142 -108.047241 783185.000000 5.000000 2.000000 -1250904.875000 0.000000 
-5074.602944 -1293.344097 -68.765747 448055.000000 7.000000 7.000000 -1250960.500000 0.000000 
2887.023398 -1227.965312 -107.948242 138559.000000 1.000000 1.000000 -1251094.000000 10.000000 
4837.729453 -547.673809 -107.946411 40557.000000 1.000000 1.000000 -1251144.875000 8.000000 
5566.426719 -1188.885906 -108.973755 302664.000000 7.000000 2.000000 -1251051.250000 0.000000 
4492.041953 -1268.591289 -73.406616 302456.000000 7.000000 7.000000 -1251051.375000 0.000000 
5185.772422 -400.508525 -60.625854 778355.000000 1.000000 1.000000 -1250906.000000 0.000000 
1938.701133 -786.748027 -108.322632 767219.000000 7.000000 4.000000 -1250908.375000 0.000000 
3269.177695 -278.982524 -39.711670 100756.000000 1.000000 1.000000 -1251110.375000 3.000000 
3537.185508 -442.628154 -67.330200 313868.000000 7.000000 7.000000 -1251045.875000 0.000000 
-2842.405801 -592.872539 -192.652893 435249.000000 4.000000 3.000000 -1250966.875000 0.000000 
-750.183145 -404.555400 -60.484497 168207.000000 7.000000 7.000000 -1251084.250000 0.000000 
2407.276328 -342.580547 -50.563721 765190.000000 7.000000 7.000000 -1250908.750000 0.000000 
1323.805625 -1364.995891 -56.828857 304854.000000 1.000000 1.000000 -1251049.750000 7.000000 
1574.162070 -659.520305 -108.045654 184731.000000 6.000000 3.000000 -1251079.625000 0.000000 
-1467.169473 -410.741558 -62.458496 419508.000000 1.000000 1.000000 -1250975.375000 1.000000 
-913.731484 -714.066875 -107.967407 416085.000000 1.000000 1.000000 -1250977.250000 7.000000 
4755.452109 -638.601787 -107.949951 40629.000000 1.000000 1.000000 -1251144.875000 10.000000 
3694.653281 -563.356182 -107.979370 90052.000000 1.000000 1.000000 -1251116.250000 13.000000 
4030.690391 -1256.720409 -75.373657 302877.000000 7.000000 7.000000 -1251051.000000 0.000000 
-2186.586953 -1035.904705 -107.863770 440014.000000 1.000000 1.000000 -1250964.875000 0.000000 
-4252.979775 -913.673015 -108.864746 474644.000000 7.000000 1.000000 -1250956.500000 0.000000 
-43.961465 -1421.826702 -47.604370 524280.000000 7.000000 1.000000 -1250941.125000 0.000000 
5408.931602 -483.777812 -74.275269 583213.000000 7.000000 7.000000 -1250922.625000 0.000000 
-500.462930 -1216.657909 -107.791626 516300.000000 4.000000 4.000000 -1250944.000000 0.000000 
4910.488242 -458.858623 -70.811035 40696.000000 1.000000 1.000000 -1251144.875000 3.000000 
1238.989219 -1396.222606 -51.315308 544299.000000 6.000000 4.000000 -1250933.750000 0.000000 
1339.577109 -1309.811901 -66.341675 146595.000000 1.000000 1.000000 -1251089.000000 0.000000 
1160.088828 -1266.738292 -73.836060 309476.000000 1.000000 1.000000 -1251047.625000 10.000000 
1531.653281 -608.167461 -108.593506 183751.000000 6.000000 1.000000 -1251080.000000 0.000000 
3169.027305 -627.026836 -107.966919 111328.000000 1.000000 1.000000 -1251104.750000 9.000000 
2126.941367 -1153.263713 -108.048340 195651.000000 6.000000 3.000000 -1251076.125000 0.000000 
693.506309 -787.764507 -107.859009 539052.000000 2.000000 2.000000 -1250935.750000 0.000000 
-1140.520059 -488.320781 -81.374756 500133.000000 1.000000 1.000000 -1250949.500000 7.000000 
-884.674844 -294.113506 -42.211426 166807.000000 7.000000 7.000000 -1251084.625000 0.000000 
4560.164023 -663.969402 -107.863647 237096.000000 1.000000 1.000000 -1251062.625000 0.000000 
494.118125 -1075.043804 -108.786255 180248.000000 7.000000 1.000000 -1251081.000000 0.000000 
-5562.375649 -368.812603 -54.388184 465473.000000 7.000000 7.000000 -1250958.125000 0.000000 
1059.553184 -1426.725002 -45.959351 187389.000000 7.000000 7.000000 -1251078.750000 0.000000 
3148.688437 -273.887798 86.095703 766732.000000 6.000000 5.000000 -1250908.375000 0.000000 
-52.116250 -1244.726787 -108.006348 178427.000000 7.000000 4.000000 -1251081.500000 0.000000 
1478.850547 -562.904644 -107.950562 326968.000000 1.000000 1.000000 -1251036.625000 2.000000 
-2044.732461 -597.014263 -107.887939 430144.000000 1.000000 1.000000 -1250969.750000 0.000000 
430.743125 -456.696147 -70.419434 356307.000000 1.000000 1.000000 -1251015.125000 6.000000 
4585.058555 -828.814617 -108.002197 40774.000000 1.000000 1.000000 -1251144.750000 17.000000 
2588.375937 -1422.214794 -46.921021 147376.000000 1.000000 1.000000 -1251088.250000 5.000000 
1348.830039 -681.301982 -107.947021 551441.000000 1.000000 1.000000 -1250931.000000 0.000000 
-2393.581582 -694.543376 -108.191650 485428.000000 6.000000 2.000000 -1250954.125000 0.000000 
762.679160 -706.860576 -107.273560 178569.000000 7.000000 7.000000 -1251081.500000 0.000000 
1603.400352 -747.055400 -108.510498 554590.000000 3.000000 1.000000 -1250929.875000 0.000000 
-798.441445 -678.284771 -107.946167 411816.000000 1.000000 1.000000 -1250979.750000 9.000000 
5711.132773 -668.070476 -107.940674 256903.000000 3.000000 2.000000 -1251056.250000 0.000000 
-767.936563 -387.374614 -58.330444 167997.000000 7.000000 7.000000 -1251084.375000 0.000000 
2576.760703 -464.791240 -72.981445 766590.000000 7.000000 1.000000 -1250908.500000 0.000000 
-1418.021523 -1130.142009 -107.751587 501389.000000 5.000000 5.000000 -1250949.000000 0.000000 
5123.457969 -718.923503 -107.444336 580483.000000 7.000000 7.000000 -1250923.125000 0.000000 
1496.010703 -1086.057292 -107.908447 550039.000000 5.000000 4.000000 -1250931.625000 0.000000 
4291.581016 -332.975811 -49.159058 771913.000000 5.000000 3.000000 -1250907.500000 0.000000 
4464.036094 -394.535259 -59.669922 56029.000000 1.000000 1.000000 -1251136.250000 5.000000 
4058.728477 -889.356121 -108.072510 226175.000000 2.000000 1.000000 -1251066.625000 0.000000 
5061.465781 -493.220928 -97.185059 248366.000000 1.000000 1.000000 -1251058.625000 7.000000 
3148.618125 -661.448711 -168.114319 112867.000000 1.000000 1.000000 -1251104.125000 6.000000 
5795.123984 -887.668010 -108.043213 255782.000000 5.000000 3.000000 -1251056.500000 0.000000 
3313.701133 -456.797588 -70.442261 102788.000000 1.000000 1.000000 -1251109.500000 5.000000 
-810.573770 -524.456157 -107.946289 408104.000000 1.000000 1.000000 -1250982.000000 7.000000 
3356.165977 -481.529399 -75.117798 769251.000000 7.000000 5.000000 -1250907.875000 0.000000 
-3542.259316 -1225.634502 -108.022217 446308.000000 7.000000 4.000000 -1250961.750000 0.000000 
5028.795859 -309.641338 -45.003052 40974.000000 1.000000 1.000000 -1251144.625000 2.000000 
-3307.483438 -594.946270 -108.027710 476956.000000 7.000000 4.000000 -1250956.000000 0.000000 
276.181113 -501.484844 -107.945190 362118.000000 1.000000 1.000000 -1251010.875000 12.000000 
-920.116738 -1351.072490 -59.272705 442341.000000 1.000000 1.000000 -1250964.000000 18.000000 
904.528770 -994.911113 -107.955811 324318.000000 1.000000 1.000000 -1251038.625000 13.000000 
18.920859 -735.160320 -107.889648 525403.000000 1.000000 1.000000 -1250940.750000 0.000000 
148.376426 -793.511699 -107.828003 141340.000000 7.000000 5.000000 -1251092.375000 0.000000 
1801.262656 -881.264324 -108.536499 555919.000000 5.000000 1.000000 -1250929.500000 0.000000 
751.294395 -1022.146526 -107.999634 327051.000000 1.000000 1.000000 -1251036.500000 14.000000 
3898.212852 -1144.000103 -108.212646 304347.000000 7.000000 3.000000 -1251050.000000 0.000000 
1559.015586 -713.230083 -107.947876 135115.000000 1.000000 1.000000 -1251095.750000 0.000000 
424.190391 -1249.390697 -98.736938 146661.000000 7.000000 6.000000 -1251089.000000 0.000000 
2854.740195 -1449.938793 -42.643188 774850.000000 7.000000 6.000000 -1250906.875000 0.000000 
-919.997598 -916.557109 -107.969971 423017.000000 1.000000 1.000000 -1250973.500000 11.000000 
3139.226523 -923.566692 -107.994995 121831.000000 1.000000 1.000000 -1251101.000000 10.000000 
2828.694297 -1296.185405 -68.752930 141779.000000 1.000000 1.000000 -1251092.125000 10.000000 
115.348594 -521.622539 -107.985107 369399.000000 1.000000 1.000000 -1251005.500000 13.000000 
1488.653281 -1090.835186 -107.746704 549899.000000 3.000000 3.000000 -1250931.625000 0.000000 
-833.057656 -331.660503 -49.700806 167297.000000 7.000000 2.000000 -1251084.500000 0.000000 
4642.998008 -753.606121 -107.972900 41052.000000 1.000000 1.000000 -1251144.625000 15.000000 
-5178.285684 -1418.291393 -47.484375 449245.000000 7.000000 7.000000 -1250959.250000 0.000000 
150.150840 -788.001628 -108.026489 141270.000000 7.000000 4.000000 -1251092.500000 0.000000 
2468.138633 -1064.528301 -108.044556 199292.000000 5.000000 3.000000 -1251075.000000 0.000000 
4961.516562 -380.830547 -57.295654 41115.000000 1.000000 1.000000 -1251144.625000 2.000000 
5468.580039 -433.196758 -67.007813 583773.000000 7.000000 4.000000 -1250922.625000 0.000000 
-1968.536172 -287.875713 -40.936646 758467.000000 7.000000 7.000000 -1250910.000000 0.000000 
121.230430 -986.733013 -108.704834 143720.000000 7.000000 1.000000 -1251091.125000 0.000000 
-417.180215 -449.859722 -69.230957 393057.000000 1.000000 1.000000 -1250991.500000 6.000000 
-1732.211953 -365.046978 -54.583740 422306.000000 1.000000 1.000000 -1250973.875000 0.000000 
4927.542930 -1099.961528 -108.511475 241363.000000 3.000000 1.000000 -1251061.250000 0.000000 
48.242148 -371.478252 -56.319214 136720.000000 7.000000 3.000000 -1251094.875000 0.000000 
81.313926 -356.290386 -51.518677 760988.000000 7.000000 7.000000 -1250909.625000 0.000000 
3777.501914 -1054.973613 -107.949097 220854.000000 1.000000 1.000000 -1251068.375000 0.000000 
-2715.897500 -997.912883 -107.962158 441271.000000 3.000000 3.000000 -1250964.375000 0.000000 
425.670371 -1028.790996 -108.061157 532961.000000 1.000000 1.000000 -1250938.000000 0.000000 
-414.874551 -660.159221 -107.961548 396910.000000 1.000000 1.000000 -1250989.125000 15.000000 
-3568.083779 -442.959453 -68.791992 473806.000000 5.000000 1.000000 -1250956.750000 0.000000 
1670.326133 -692.245220 -107.957520 321507.000000 1.000000 1.000000 -1251040.625000 2.000000 
-701.574746 -951.751384 -108.002197 418331.000000 1.000000 1.000000 -1250976.125000 14.000000 
-153.770547 -1088.311626 -108.006348 176607.000000 7.000000 4.000000 -1251082.125000 0.000000 
2707.864219 -1191.710308 -108.539307 203632.000000 4.000000 1.000000 -1251073.750000 0.000000 
1383.199180 -963.714580 -107.981445 317661.000000 1.000000 1.000000 -1251043.500000 4.000000 
2742.514609 -1365.791210 -56.703247 144928.000000 1.000000 1.000000 -1251090.375000 8.000000 
2904.374961 -1384.262187 -53.434448 301901.000000 2.000000 2.000000 -1251051.750000 0.000000 
547.463340 -667.210979 -107.866577 536813.000000 1.000000 1.000000 -1250936.625000 0.000000 
4958.749961 -377.408916 -56.705322 41255.000000 1.000000 1.000000 -1251144.500000 2.000000 
2352.269492 -1462.830104 -40.622559 557037.000000 5.000000 2.000000 -1250929.125000 0.000000 
225.943320 -671.318523 -107.795898 174928.000000 7.000000 5.000000 -1251082.625000 0.000000 
2650.070273 -1459.345500 -40.531006 148567.000000 1.000000 1.000000 -1251087.125000 6.000000 
1959.758750 -1027.053813 -108.027344 192571.000000 6.000000 3.000000 -1251077.000000 0.000000 
4252.067344 -298.122051 -43.774536 771353.000000 4.000000 1.000000 -1250907.500000 0.000000 
1372.546836 -896.796123 -107.939941 549830.000000 3.000000 2.000000 -1250931.625000 0.000000 
-384.769082 -683.108379 -107.159912 172057.000000 7.000000 7.000000 -1251083.375000 0.000000 
3092.640586 -475.469097 -73.805908 572857.000000 2.000000 1.000000 -1250924.625000 0.000000 
3929.864219 -452.615947 -69.516113 771352.000000 4.000000 3.000000 -1250907.500000 0.000000 
-874.098672 -283.070415 -40.410034 404742.000000 1.000000 1.000000 -1250984.125000 2.000000 
-4645.731973 -274.242168 41.872314 159664.000000 7.000000 7.000000 -1251085.500000 0.000000 
5350.670859 -907.457378 -108.509766 249413.000000 2.000000 1.000000 -1251058.375000 0.000000 
2619.969687 -492.125225 -93.553711 196075.000000 1.000000 1.000000 -1251076.000000 5.000000 
780.847129 -1187.217510 -109.541748 767008.000000 7.000000 1.000000 -1250908.375000 0.000000 
4742.741172 -627.621196 -107.952148 41329.000000 1.000000 1.000000 -1251144.500000 10.000000 
4202.304648 -443.587139 -68.175659 65971.000000 1.000000 1.000000 -1251130.625000 7.000000 
4367.221641 -711.785625 -107.757690 577614.000000 7.000000 5.000000 -1250923.625000 0.000000 
5822.136680 -279.639873 -39.767700 263065.000000 1.000000 1.000000 -1251054.875000 1.000000 
-897.164590 -1093.028118 -107.983398 429669.000000 1.000000 1.000000 -1250970.000000 15.000000 
798.082480 -455.735698 -70.245239 343844.000000 1.000000 1.000000 -1251024.375000 4.000000 
-380.485879 -1235.699810 -107.919067 518400.000000 3.000000 3.000000 -1250943.250000 0.000000 
-233.666055 -592.889141 -107.963745 387040.000000 1.000000 1.000000 -1250995.125000 15.000000 
4048.232383 -345.622295 -51.203735 226250.000000 1.000000 1.000000 -1251066.500000 4.000000 
3580.078086 -596.464702 -108.490601 771141.000000 7.000000 2.000000 -1250907.625000 0.000000 
5780.241172 -897.009929 -108.539551 255502.000000 5.000000 1.000000 -1251056.500000 0.000000 
-1906.905801 -1126.944194 -108.592529 495018.000000 5.000000 1.000000 -1250951.125000 0.000000 
800.445273 -942.278911 -108.046265 141762.000000 6.000000 3.000000 -1251092.250000 0.000000 
3330.601523 -460.149761 -71.884888 768971.000000 7.000000 2.000000 -1250907.875000 0.000000 
2920.204062 -417.407451 -63.744873 316950.000000 3.000000 1.000000 -1251044.000000 0.000000 
1519.608359 -1122.048625 -107.915649 311640.000000 1.000000 1.000000 -1251046.875000 3.000000 
1804.953086 -893.124126 -108.190674 189561.000000 6.000000 2.000000 -1251078.000000 0.000000 
-239.772988 -642.501873 -107.995361 388021.000000 1.000000 1.000000 -1250994.500000 18.000000 
2669.599570 -414.551860 -63.126465 196006.000000 1.000000 1.000000 -1251076.000000 1.000000 
3583.733359 -370.870220 -55.576294 91869.000000 1.000000 1.000000 -1251115.250000 5.000000 
544.120566 -670.253093 -107.663574 138751.000000 6.000000 5.000000 -1251093.875000 0.000000 
1422.980430 -1255.001415 -80.636963 308142.000000 2.000000 1.000000 -1251048.250000 0.000000 
3535.267539 -1124.747417 -107.360718 305048.000000 5.000000 5.000000 -1251049.625000 0.000000 
-1185.858438 -742.923625 -107.993652 422872.000000 1.000000 1.000000 -1250973.500000 5.000000 
4885.843711 -1185.237987 -108.972534 576003.000000 7.000000 2.000000 -1250924.000000 0.000000 
-42.508828 -564.244854 -107.966919 377170.000000 1.000000 1.000000 -1251001.000000 15.000000 
736.962852 -1000.325481 -107.998901 328451.000000 1.000000 1.000000 -1251035.500000 18.000000 
-622.241738 -488.356914 -78.765015 169397.000000 3.000000 3.000000 -1251084.000000 0.000000 
-3703.733926 -1327.603801 -62.674805 447778.000000 3.000000 3.000000 -1250960.625000 0.000000 
4854.011680 -1242.354900 -108.973022 575443.000000 7.000000 2.000000 -1250924.125000 0.000000 
1742.591758 -273.150127 85.810059 562084.000000 1.000000 1.000000 -1250927.375000 2.000000 
-979.371133 -1162.297496 -107.992676 434148.000000 1.000000 1.000000 -1250967.500000 12.000000 
5134.253867 -1363.761394 -56.596558 301265.000000 7.000000 7.000000 -1251052.375000 0.000000 
-5679.943765 -279.442241 -38.684448 464493.000000 7.000000 7.000000 -1250958.250000 0.000000 
2711.026328 -1195.242412 -107.905884 203702.000000 5.000000 4.000000 -1251073.750000 0.000000 
103.953574 -1140.632183 -108.703979 145610.000000 7.000000 1.000000 -1251089.875000 0.000000 
-3578.930459 -293.818218 -42.478516 434478.000000 7.000000 4.000000 -1250967.375000 0.000000 
4694.959922 -600.194561 -107.828857 777023.000000 7.000000 5.000000 -1250906.250000 0.000000 
-5277.652993 -588.767681 -108.478638 160573.000000 7.000000 4.000000 -1251085.500000 0.000000 
4793.728477 -362.445415 -55.161255 582304.000000 7.000000 1.000000 -1250922.750000 0.000000 
3128.057578 -1227.190410 -107.445190 774360.000000 7.000000 7.000000 -1250907.000000 0.000000 
-699.781777 -440.565776 -67.522705 168697.000000 7.000000 7.000000 -1251084.125000 0.000000 
-9.029824 -430.443706 -65.859619 524776.000000 1.000000 1.000000 -1250941.000000 3.000000 
-1018.169473 -296.182354 -42.672119 408521.000000 1.000000 1.000000 -1250981.625000 2.000000 
-3541.172158 -1204.817791 -107.850952 446028.000000 7.000000 5.000000 -1250962.000000 0.000000 
5377.182578 -1151.754406 -107.751587 247872.000000 5.000000 5.000000 -1251058.875000 0.000000 
3005.445273 -1210.057292 -107.994995 136461.000000 1.000000 1.000000 -1251095.000000 12.000000 
108.228965 -1066.081401 -107.826660 144700.000000 7.000000 5.000000 -1251090.500000 0.000000 
-2878.734414 -700.844707 -107.907349 437070.000000 3.000000 2.000000 -1250966.000000 0.000000 
2704.976523 -273.577861 83.061401 194889.000000 1.000000 1.000000 -1251076.375000 10.000000 
-1834.317422 -1371.764202 -55.635498 446668.000000 1.000000 1.000000 -1250961.500000 2.000000 
4656.468711 -476.170269 -73.092529 580834.000000 7.000000 7.000000 -1250923.000000 0.000000 
685.239707 -931.466777 -108.002441 333071.000000 1.000000 1.000000 -1251032.250000 17.000000 
2599.665977 -1010.048992 -107.947021 133934.000000 1.000000 1.000000 -1251096.500000 4.000000 
831.509238 -1068.673503 -107.963501 322850.000000 1.000000 1.000000 -1251039.750000 15.000000 
4195.924766 -1027.149883 -107.157593 574114.000000 7.000000 7.000000 -1250924.375000 0.000000 
362.945762 -391.555889 -59.031738 172899.000000 4.000000 3.000000 -1251083.125000 0.000000 
718.058555 -825.509319 -107.975098 336009.000000 1.000000 1.000000 -1251030.125000 14.000000 
4184.734336 -883.429119 -107.854980 228695.000000 2.000000 2.000000 -1251065.625000 0.000000 
2632.667930 -491.359966 -91.013550 569078.000000 1.000000 1.000000 -1250925.375000 1.000000 
511.585898 -290.597148 -41.700195 538287.000000 1.000000 1.000000 -1250936.000000 4.000000 
4353.594687 -421.363506 -64.318359 59880.000000 1.000000 1.000000 -1251134.250000 6.000000 
4213.278281 -649.147197 -107.796875 774642.000000 7.000000 5.000000 -1250906.875000 0.000000 
2952.604453 -1274.750408 -72.460938 139891.000000 1.000000 1.000000 -1251093.250000 13.000000 
4483.622031 -1262.433788 -75.339233 302526.000000 7.000000 2.000000 -1251051.250000 0.000000 
-821.018594 -700.841106 -107.945313 413146.000000 1.000000 1.000000 -1250978.875000 10.000000 
4873.191367 -860.842876 -107.272461 780873.000000 7.000000 7.000000 -1250905.375000 0.000000 
-2695.951699 -486.465068 -75.708862 480318.000000 1.000000 1.000000 -1250955.250000 0.000000 
3576.953086 -597.947246 -107.755249 771141.000000 7.000000 5.000000 -1250907.625000 0.000000 
2374.080039 -719.138713 -107.423706 564108.000000 6.000000 6.000000 -1250926.625000 0.000000 
-427.455605 -291.561992 -41.869995 391235.000000 1.000000 1.000000 -1250992.500000 4.000000 
796.846641 -1142.950908 -108.510376 538980.000000 2.000000 1.000000 -1250935.750000 0.000000 
-82.202676 -356.010356 -53.026855 378427.000000 1.000000 1.000000 -1251000.250000 6.000000 
4947.550742 -363.803936 -54.358276 41815.000000 1.000000 1.000000 -1251144.125000 2.000000 
3674.380820 -360.734233 -53.947266 577616.000000 5.000000 3.000000 -1250923.625000 0.000000 
-268.103066 -897.499126 -107.755859 174437.000000 7.000000 5.000000 -1251082.750000 0.000000 
1326.197227 -1177.119915 -107.906616 546959.000000 5.000000 4.000000 -1250932.750000 0.000000 
4005.541953 -563.296489 -107.967163 74723.000000 1.000000 1.000000 -1251125.375000 15.000000 
-883.425332 -1243.728710 -108.867554 147498.000000 7.000000 1.000000 -1251088.125000 0.000000 
-1468.665566 -956.928203 -107.947754 433090.000000 1.000000 1.000000 -1250968.125000 3.000000 
362.127402 -1236.605510 -108.510864 531280.000000 3.000000 1.000000 -1250938.625000 0.000000 
1006.516562 -324.882671 -47.644043 549065.000000 1.000000 1.000000 -1250932.000000 2.000000 
4783.926719 -734.063884 -107.826660 778983.000000 7.000000 5.000000 -1250905.750000 0.000000 
3789.309531 -996.945415 -107.756958 775551.000000 7.000000 5.000000 -1250906.750000 0.000000 
-2616.959023 -906.333110 -107.361450 485497.000000 7.000000 7.000000 -1250954.125000 0.000000 
5703.837852 -671.892375 -108.508545 256763.000000 2.000000 1.000000 -1251056.250000 0.000000 
5224.367148 -553.242656 -107.853271 250675.000000 1.000000 1.000000 -1251057.875000 0.000000 
1908.592734 -1442.860302 -43.347046 148699.000000 1.000000 1.000000 -1251087.000000 1.000000 
49.155234 -516.065898 -107.977051 372619.000000 1.000000 1.000000 -1251003.500000 15.000000 
816.433555 -1137.796978 -108.211426 539330.000000 4.000000 2.000000 -1250935.625000 0.000000 
-4717.344521 -423.576152 -65.439941 468484.000000 7.000000 3.000000 -1250957.750000 0.000000 
1827.809531 -1398.921306 -50.635010 551858.000000 7.000000 6.000000 -1250930.875000 0.000000 
1736.613242 -826.841106 -108.593506 188161.000000 6.000000 1.000000 -1251078.500000 0.000000 
-583.772988 -657.718914 -107.864258 512383.000000 1.000000 1.000000 -1250945.375000 0.000000 
1543.753867 -1344.933208 -60.297119 304781.000000 1.000000 1.000000 -1251049.750000 4.000000 
434.534629 -1411.758693 -48.229370 182698.000000 7.000000 7.000000 -1251080.250000 0.000000 
-653.010781 -328.648052 -48.293579 399284.000000 1.000000 1.000000 -1250987.750000 3.000000 
-2392.721230 -471.788555 -74.355591 164285.000000 7.000000 1.000000 -1251084.875000 0.000000 
785.644492 -1031.534709 -107.881714 143092.000000 6.000000 4.000000 -1251091.500000 0.000000 
-1934.054238 -777.091899 -107.910034 491379.000000 5.000000 4.000000 -1250952.250000 0.000000 
-196.108438 -349.042461 -52.510010 169818.000000 7.000000 2.000000 -1251083.875000 0.000000 
1736.057578 -827.412883 -108.338013 188161.000000 6.000000 2.000000 -1251078.500000 0.000000 
2804.906211 -1367.152507 -56.449585 144719.000000 1.000000 1.000000 -1251090.500000 9.000000 
-878.369180 -1136.275981 -108.492554 146448.000000 7.000000 2.000000 -1251089.250000 0.000000 
4568.151328 -814.441692 -108.000366 41964.000000 1.000000 1.000000 -1251144.125000 19.000000 
-3954.979287 -490.963970 -90.171753 472265.000000 2.000000 1.000000 -1250957.125000 0.000000 
-1596.490273 -507.566997 -107.813843 492921.000000 1.000000 1.000000 -1250951.750000 0.000000 
2939.410117 -1439.615093 -43.735352 562496.000000 7.000000 7.000000 -1250927.250000 0.000000 
3747.143516 -930.116985 -107.157837 774781.000000 7.000000 7.000000 -1250906.875000 0.000000 
253.630820 -646.493206 -107.989868 361211.000000 1.000000 1.000000 -1251011.500000 19.000000 
1283.765586 -1132.225811 -107.965454 313323.000000 1.000000 1.000000 -1251046.125000 6.000000 
4693.973594 -660.235698 -107.969360 42030.000000 1.000000 1.000000 -1251144.000000 9.000000 
1088.185996 -608.155986 -107.964722 332782.000000 1.000000 1.000000 -1251032.500000 4.000000 
4627.533164 -740.579692 -107.990723 42032.000000 1.000000 1.000000 -1251144.000000 14.000000 
-1918.866738 -1128.567791 -108.647461 169955.000000 7.000000 3.000000 -1251083.875000 0.000000 
5463.974570 -528.253765 -108.192261 782205.000000 6.000000 2.000000 -1250905.000000 0.000000 
4129.211875 -361.332134 -53.946899 69610.000000 1.000000 1.000000 -1251128.250000 6.000000 
2886.809531 -810.457683 -107.948242 203564.000000 1.000000 1.000000 -1251073.750000 0.000000 
4799.788047 -750.983196 -108.705322 779263.000000 7.000000 1.000000 -1250905.750000 0.000000 
2374.941367 -472.204326 -73.272339 566909.000000 2.000000 1.000000 -1250925.750000 0.000000 
11.173789 -420.426616 -64.136963 374508.000000 1.000000 1.000000 -1251002.375000 7.000000 
-458.188027 -627.872417 -107.976929 398099.000000 1.000000 1.000000 -1250988.375000 14.000000 
-1911.935586 -1432.618801 -46.111084 149457.000000 7.000000 2.000000 -1251086.375000 0.000000 
2474.237266 -392.645854 -59.424561 765750.000000 7.000000 7.000000 -1250908.625000 0.000000 
-1494.917031 -329.882305 -48.474365 492293.000000 1.000000 1.000000 -1250952.000000 1.000000 
2108.893516 -615.012554 -108.201660 562429.000000 5.000000 2.000000 -1250927.250000 0.000000 
4796.541953 -489.281475 -84.590088 243187.000000 1.000000 1.000000 -1251060.625000 9.000000 
643.034141 -802.468303 -107.855713 538002.000000 2.000000 2.000000 -1250936.125000 0.000000 
3263.847617 -659.801982 -108.394287 572086.000000 7.000000 2.000000 -1250924.875000 0.000000 
1063.872031 -1074.804485 -107.989502 318156.000000 1.000000 1.000000 -1251043.125000 10.000000 
-736.384316 -921.043071 -107.962158 418190.000000 1.000000 1.000000 -1250976.125000 15.000000 
-3242.050088 -696.188396 -107.828003 478426.000000 7.000000 5.000000 -1250955.625000 0.000000 
-1204.522988 -923.354717 -107.941040 428683.000000 1.000000 1.000000 -1250970.500000 6.000000 
4803.694297 -358.216655 -53.510986 582374.000000 7.000000 7.000000 -1250922.750000 0.000000 
-16.429727 -563.422344 -107.965210 375840.000000 1.000000 1.000000 -1251001.750000 15.000000 
1388.694297 -908.209697 -108.206909 185570.000000 7.000000 3.000000 -1251079.375000 0.000000 
5170.710898 -1415.883403 -49.086060 300775.000000 7.000000 1.000000 -1251052.875000 0.000000 
-263.150918 -875.986919 -107.882202 519732.000000 1.000000 1.000000 -1250942.750000 0.000000 
-1701.509805 -1287.884899 -70.179443 444079.000000 1.000000 1.000000 -1250963.125000 3.000000 
-1161.960977 -841.790874 -107.941772 425393.000000 1.000000 1.000000 -1250972.250000 6.000000 
1175.735312 -1234.777812 -107.931030 310595.000000 1.000000 1.000000 -1251047.250000 8.000000 
1116.145469 -1307.729686 -66.734131 308147.000000 1.000000 1.000000 -1251048.250000 11.000000 
-4318.796670 -954.179424 -108.021118 443996.000000 7.000000 4.000000 -1250963.250000 0.000000 
2000.009727 -719.422283 -107.905151 189982.000000 3.000000 2.000000 -1251077.875000 0.000000 
831.152793 -788.193828 -108.043457 139452.000000 6.000000 3.000000 -1251093.500000 0.000000 
2904.136680 -1430.036403 -45.596436 146961.000000 1.000000 1.000000 -1251088.625000 12.000000 
1982.499961 -342.058940 -50.528931 564251.000000 1.000000 1.000000 -1250926.625000 0.000000 
-62.103066 -594.932598 -107.909546 523584.000000 1.000000 1.000000 -1250941.375000 1.000000 
-2873.821816 -1093.151592 -157.599792 167224.000000 7.000000 7.000000 -1251084.500000 0.000000 
-1087.676309 -847.568706 -107.949341 424204.000000 1.000000 1.000000 -1250972.875000 7.000000 
2183.381797 -1021.350505 -107.893677 310304.000000 1.000000 1.000000 -1251047.375000 0.000000 
-1317.901895 -420.501567 -64.153442 496283.000000 1.000000 1.000000 -1250950.625000 1.000000 
3311.998984 -970.633586 -107.950562 212034.000000 1.000000 1.000000 -1251071.375000 0.000000 
-4696.962197 -439.401592 -68.171143 468694.000000 7.000000 3.000000 -1250957.625000 0.000000 
-2426.164590 -451.193096 -70.189331 164075.000000 7.000000 4.000000 -1251085.000000 0.000000 
-832.574258 -331.477275 -49.810669 167297.000000 7.000000 1.000000 -1251084.500000 0.000000 
-2595.978555 -556.885356 -107.936279 433361.000000 3.000000 2.000000 -1250968.000000 0.000000 
5106.067344 -561.098979 -108.018188 779544.000000 6.000000 3.000000 -1250905.625000 0.000000 
3310.328086 -796.516277 -107.979858 112032.000000 1.000000 1.000000 -1251104.375000 14.000000 
-392.025918 -700.553081 -107.991821 396771.000000 1.000000 1.000000 -1250989.125000 17.000000 
1985.055625 -911.409526 -108.001953 768199.000000 7.000000 5.000000 -1250908.125000 0.000000 
761.621543 -1239.673809 -107.717651 146172.000000 6.000000 5.000000 -1251089.375000 0.000000 
-5000.092080 -989.359294 -107.037354 472053.000000 7.000000 7.000000 -1250957.125000 0.000000 
5418.466758 -636.663555 -107.950317 252984.000000 1.000000 1.000000 -1251057.250000 0.000000 
-1610.538125 -1016.876201 -107.747681 497819.000000 5.000000 4.000000 -1250950.250000 0.000000 
3358.344687 -1287.298595 -70.484009 303019.000000 3.000000 1.000000 -1251051.000000 0.000000 
714.565879 -1066.892681 -106.664551 766168.000000 7.000000 7.000000 -1250908.500000 0.000000 
3575.559531 -1228.488201 -108.193604 217633.000000 4.000000 2.000000 -1251069.500000 0.000000 
4562.103477 -809.465923 -107.993286 42384.000000 1.000000 1.000000 -1251143.875000 15.000000 
-328.561563 -1068.638896 -108.773560 145259.000000 7.000000 1.000000 -1251090.125000 0.000000 
4877.269492 -419.364360 -63.957764 42446.000000 1.000000 1.000000 -1251143.750000 3.000000 
1564.209922 -1407.507198 -49.483887 302821.000000 1.000000 1.000000 -1251051.125000 4.000000 
1748.046836 -273.493022 87.831055 562154.000000 3.000000 2.000000 -1250927.375000 0.000000 
4282.831992 -763.718486 -108.245239 776112.000000 7.000000 3.000000 -1250906.500000 0.000000 
1886.743125 -643.946819 -108.324463 766099.000000 7.000000 4.000000 -1250908.625000 0.000000 
1235.378867 -1220.725688 -107.747070 545349.000000 4.000000 4.000000 -1250933.375000 0.000000 
1003.083945 -1075.001079 -107.970215 319137.000000 1.000000 1.000000 -1251042.375000 10.000000 
2332.105430 -276.437969 -14.109253 189006.000000 1.000000 1.000000 -1251078.250000 0.000000 
-2804.160195 -1234.364086 -107.626831 486896.000000 7.000000 6.000000 -1250953.625000 0.000000 
-4354.089883 -740.004314 -107.516724 472684.000000 7.000000 6.000000 -1250957.000000 0.000000 
-966.645547 -447.807109 -68.879639 503004.000000 1.000000 1.000000 -1250948.500000 2.000000 
4182.688437 -1411.860698 -49.326416 227993.000000 7.000000 1.000000 -1251065.875000 0.000000 
3121.840781 -1173.991313 -107.966797 133033.000000 1.000000 1.000000 -1251097.125000 16.000000 
3066.789023 -1111.449626 -107.731567 773240.000000 7.000000 6.000000 -1250907.250000 0.000000 
4685.320273 -653.155803 -107.966553 42520.000000 1.000000 1.000000 -1251143.750000 12.000000 
4223.145469 -880.136394 -107.856567 229465.000000 2.000000 2.000000 -1251065.375000 0.000000 
4619.712852 -734.171489 -107.979614 42522.000000 1.000000 1.000000 -1251143.750000 15.000000 
1873.260703 -560.059062 -107.910156 322205.000000 1.000000 1.000000 -1251040.250000 1.000000 
2256.133750 -924.791973 -108.203125 195232.000000 5.000000 2.000000 -1251076.250000 0.000000 
-4156.903604 -846.112102 -108.620239 759096.000000 5.000000 2.000000 -1250909.875000 0.000000 
-298.473184 -561.141338 -107.977417 389699.000000 1.000000 1.000000 -1250993.375000 14.000000 
5747.710898 -273.152080 87.593384 262157.000000 3.000000 1.000000 -1251055.125000 0.000000 
1788.575156 -1174.588787 -107.890137 143027.000000 1.000000 1.000000 -1251091.500000 0.000000 
4356.415977 -730.442119 -108.004883 577404.000000 7.000000 4.000000 -1250923.625000 0.000000 
715.892051 -678.836772 -107.965942 340767.000000 1.000000 1.000000 -1251026.625000 12.000000 
304.748984 -412.012187 -62.673950 532546.000000 1.000000 1.000000 -1250938.250000 3.000000 
5644.559531 -388.118633 -58.529541 259215.000000 1.000000 1.000000 -1251055.625000 1.000000 
-3218.061074 -373.303325 -56.222778 433919.000000 4.000000 1.000000 -1250967.625000 0.000000 
853.310020 -735.416423 -107.945557 334886.000000 1.000000 1.000000 -1251031.000000 9.000000 
4154.895469 -542.843120 -107.798340 773312.000000 7.000000 5.000000 -1250907.250000 0.000000 
4467.829062 -1038.963604 -108.772339 779752.000000 7.000000 1.000000 -1250905.625000 0.000000 
1412.261680 -1252.581096 -88.140015 308282.000000 1.000000 1.000000 -1251048.125000 0.000000 
-1036.970742 -769.662578 -107.951050 420704.000000 1.000000 1.000000 -1250974.750000 7.000000 
-428.501504 -1228.251506 -108.045532 517560.000000 3.000000 2.000000 -1250943.500000 0.000000 
-3826.230020 -576.176616 -108.004028 473735.000000 7.000000 4.000000 -1250956.750000 0.000000 
4246.494102 -1405.018291 -50.128174 229043.000000 7.000000 3.000000 -1251065.500000 0.000000 
-2424.550332 -1097.011577 -108.020630 489137.000000 5.000000 3.000000 -1250953.000000 0.000000 
2891.249961 -1359.302501 -57.957642 302321.000000 2.000000 1.000000 -1251051.500000 0.000000 
5182.585898 -666.490703 -107.666748 781294.000000 6.000000 5.000000 -1250905.250000 0.000000 
5110.157187 -342.451152 -50.579834 777095.000000 1.000000 1.000000 -1250906.250000 0.000000 
1065.484824 -1248.090801 -102.760864 311087.000000 1.000000 1.000000 -1251047.000000 2.000000 
-3432.570596 -555.786968 -108.386597 162884.000000 7.000000 4.000000 -1251085.125000 0.000000 
855.363242 -1118.147808 -107.959595 320050.000000 1.000000 1.000000 -1251041.750000 17.000000 
4575.808555 -276.842876 -39.405762 53997.000000 1.000000 1.000000 -1251137.375000 3.000000 
4681.584922 -650.155498 -107.973633 42730.000000 1.000000 1.000000 -1251143.625000 12.000000 
3659.131797 -765.493816 -107.519287 772961.000000 7.000000 6.000000 -1250907.250000 0.000000 
2854.776328 -619.082988 -107.907104 314290.000000 5.000000 4.000000 -1251045.750000 0.000000 
-3027.927285 -1252.176403 -90.338501 446100.000000 7.000000 3.000000 -1250961.875000 0.000000 
4557.021445 -805.369976 -108.002319 42734.000000 1.000000 1.000000 -1251143.625000 16.000000 
-969.889199 -1003.896221 -107.968872 427427.000000 1.000000 1.000000 -1250971.125000 10.000000 
4852.539023 -833.252178 -107.270142 780453.000000 7.000000 7.000000 -1250905.375000 0.000000 
-5579.857705 -356.496074 -52.025391 465333.000000 7.000000 7.000000 -1250958.125000 0.000000 
-1063.189492 -1072.967021 -107.944458 431766.000000 1.000000 1.000000 -1250968.875000 9.000000 
-408.208535 -445.502178 -68.484985 392637.000000 1.000000 1.000000 -1250991.750000 6.000000 
601.920859 -276.563579 -33.667725 540597.000000 1.000000 1.000000 -1250935.125000 8.000000 
1184.833945 -505.142925 -108.540405 133783.000000 5.000000 1.000000 -1251096.625000 0.000000 
4615.209922 -730.551982 -107.981567 42802.000000 1.000000 1.000000 -1251143.500000 14.000000 
4584.949180 -768.373577 -107.968018 42803.000000 1.000000 1.000000 -1251143.500000 15.000000 
4556.004844 -804.550579 -107.997070 42804.000000 1.000000 1.000000 -1251143.500000 15.000000 
1092.643516 -1126.444988 -107.258057 185079.000000 7.000000 7.000000 -1251079.500000 0.000000 
1018.963828 -856.236125 -107.923340 326905.000000 1.000000 1.000000 -1251036.625000 8.000000 
2234.829062 -856.006572 -108.192871 561238.000000 6.000000 2.000000 -1250927.625000 0.000000 
4595.254844 -994.947490 -107.814941 236184.000000 1.000000 1.000000 -1251063.000000 0.000000 
-1930.076699 -1123.144512 -107.354980 169885.000000 7.000000 7.000000 -1251083.875000 0.000000 
845.186973 -640.771709 -107.960815 337895.000000 1.000000 1.000000 -1251028.750000 7.000000 
-348.102090 -1227.126293 -107.183472 147009.000000 7.000000 7.000000 -1251088.625000 0.000000 
3213.493125 -393.756450 -59.753540 315829.000000 4.000000 1.000000 -1251044.750000 0.000000 
5180.665977 -1423.318599 -46.994873 300705.000000 7.000000 6.000000 -1251053.000000 0.000000 
4134.657187 -1408.337505 -49.428223 301057.000000 7.000000 5.000000 -1251052.625000 0.000000 
3847.767539 -364.814800 -54.547119 81370.000000 1.000000 1.000000 -1251121.250000 6.000000 
4867.624961 -408.542949 -62.091187 42936.000000 1.000000 1.000000 -1251143.375000 3.000000 
1256.558555 -711.395671 -107.982910 326761.000000 1.000000 1.000000 -1251036.750000 4.000000 
3275.858359 -418.275127 -64.526367 768411.000000 7.000000 3.000000 -1250908.000000 0.000000 
-4994.473184 -995.705730 -107.446655 472123.000000 7.000000 7.000000 -1250957.125000 0.000000 
1915.148398 -1038.693218 -107.919312 311286.000000 1.000000 1.000000 -1251047.000000 1.000000 
359.662070 -881.172283 -108.786743 177658.000000 7.000000 1.000000 -1251081.750000 0.000000 
-3234.524209 -1206.546001 -108.043335 445679.000000 6.000000 3.000000 -1250962.250000 0.000000 
2617.852500 -1146.616985 -108.539551 202022.000000 3.000000 1.000000 -1251074.250000 0.000000 
2158.161094 -1392.929485 -51.978882 147231.000000 1.000000 1.000000 -1251088.375000 2.000000 
800.389609 -757.578716 -107.826660 179339.000000 7.000000 5.000000 -1251081.250000 0.000000 
2802.224570 -522.244365 -108.565063 767710.000000 7.000000 3.000000 -1250908.250000 0.000000 
207.001914 -518.357646 -107.274170 137910.000000 7.000000 7.000000 -1251094.250000 0.000000 
-809.053750 -770.450298 -107.966064 414967.000000 1.000000 1.000000 -1250977.875000 12.000000 
-740.157754 -399.649517 -60.559082 403274.000000 1.000000 1.000000 -1250985.500000 4.000000 
1552.704062 -1075.578777 -108.022705 188720.000000 7.000000 4.000000 -1251078.250000 0.000000 
361.494102 -392.310894 -58.596924 172899.000000 4.000000 4.000000 -1251083.125000 0.000000 
-3161.049111 -807.612896 -108.398926 480106.000000 7.000000 2.000000 -1250955.250000 0.000000 
3561.063437 -450.110332 -69.518433 576076.000000 4.000000 2.000000 -1250924.000000 0.000000 
-2581.419473 -341.280498 -51.202148 163025.000000 7.000000 4.000000 -1251085.125000 0.000000 
30.463828 -328.539531 -48.601440 136300.000000 7.000000 5.000000 -1251095.125000 0.000000 
2924.214805 -828.105327 -107.949707 204334.000000 1.000000 1.000000 -1251073.625000 0.000000 
1954.389609 -1043.876384 -107.912964 139528.000000 1.000000 1.000000 -1251093.375000 1.000000 
4232.330039 -682.372722 -107.797119 775062.000000 7.000000 5.000000 -1250906.750000 0.000000 
-868.501504 -1021.952983 -108.491333 145328.000000 7.000000 2.000000 -1251090.125000 0.000000 
4675.338828 -645.179485 -107.970459 43080.000000 1.000000 1.000000 -1251143.375000 10.000000 
-3287.077432 -629.599468 -107.626465 477446.000000 7.000000 6.000000 -1250955.875000 0.000000 
3769.845664 -306.284160 -44.422241 84099.000000 1.000000 1.000000 -1251119.750000 5.000000 
390.462852 -1234.638408 -107.790527 531770.000000 3.000000 3.000000 -1250938.500000 0.000000 
-2747.928750 -1314.106304 -64.630005 148686.000000 7.000000 7.000000 -1251087.125000 0.000000 
4615.522422 -1239.229290 -107.797607 782482.000000 7.000000 5.000000 -1250905.000000 0.000000 
4685.651328 -448.145854 -69.680786 581184.000000 7.000000 3.000000 -1250923.000000 0.000000 
3255.904258 -854.351909 -107.978149 115882.000000 1.000000 1.000000 -1251103.000000 15.000000 
5532.995078 -408.713726 -62.085571 781436.000000 1.000000 1.000000 -1250905.250000 0.000000 
5656.427695 -296.606670 -41.902710 585313.000000 7.000000 7.000000 -1250922.375000 0.000000 
3499.706992 -763.454509 -107.996704 103494.000000 1.000000 1.000000 -1251109.125000 16.000000 
3709.998008 -860.398906 -107.519287 774011.000000 7.000000 6.000000 -1250907.125000 0.000000 
2972.933555 -1043.615398 -108.704346 566206.000000 7.000000 1.000000 -1250925.875000 0.000000 
3333.373008 -774.642498 -107.981201 110492.000000 1.000000 1.000000 -1251105.250000 14.000000 
146.270469 -886.038677 -107.880859 527922.000000 1.000000 1.000000 -1250939.875000 0.000000 
4918.658164 -330.369609 -48.582520 43215.000000 1.000000 1.000000 -1251143.250000 2.000000 
1535.569297 -883.887676 -107.980591 318219.000000 1.000000 1.000000 -1251043.000000 3.000000 
2807.675742 -476.617046 -73.842651 199086.000000 1.000000 1.000000 -1251075.125000 1.000000 
-2369.325234 -1144.646221 -108.641357 490117.000000 7.000000 1.000000 -1250952.750000 0.000000 
701.885703 -1035.332500 -106.456055 765958.000000 7.000000 7.000000 -1250908.625000 0.000000 
4381.116172 -686.635601 -107.520386 577894.000000 7.000000 6.000000 -1250923.500000 0.000000 
2862.581016 -665.377300 -108.973267 769040.000000 7.000000 2.000000 -1250907.875000 0.000000 
2551.911094 -616.702251 -107.949707 196354.000000 1.000000 1.000000 -1251075.875000 0.000000 
2658.002891 -751.767681 -108.191284 313101.000000 4.000000 2.000000 -1251046.250000 0.000000 
619.328574 -669.500591 -107.950806 344408.000000 1.000000 1.000000 -1251024.000000 12.000000 
-2374.857461 -1406.369701 -49.348755 492287.000000 7.000000 7.000000 -1250952.000000 0.000000 
-4867.429238 -303.994365 -44.923340 466944.000000 7.000000 2.000000 -1250957.875000 0.000000 
-3387.043740 -683.795330 -109.541260 163724.000000 7.000000 1.000000 -1251085.000000 0.000000 
-4616.539102 -1434.005596 -44.966187 449316.000000 7.000000 7.000000 -1250959.125000 0.000000 
4706.313437 -597.876689 -107.953979 43289.000000 1.000000 1.000000 -1251143.250000 10.000000 
3312.392539 -794.496501 -107.979004 111892.000000 1.000000 1.000000 -1251104.500000 14.000000 
515.011191 -802.555217 -107.663696 140571.000000 6.000000 5.000000 -1251092.875000 0.000000 
-1568.779336 -974.180400 -107.983276 434559.000000 1.000000 1.000000 -1250967.250000 2.000000 
5397.567344 -381.482891 -57.382080 255506.000000 1.000000 1.000000 -1251056.500000 1.000000 
2200.705039 -593.498516 -108.507446 191103.000000 3.000000 1.000000 -1251077.500000 0.000000 
-440.551797 -1226.680706 -107.915649 517350.000000 4.000000 3.000000 -1250943.625000 0.000000 
541.751914 -1206.777385 -108.511353 534430.000000 4.000000 1.000000 -1250937.500000 0.000000 
3846.927695 -575.867046 -107.962036 82843.000000 1.000000 1.000000 -1251120.500000 15.000000 
3014.523398 -411.530254 -62.601685 110135.000000 1.000000 1.000000 -1251105.500000 2.000000 
-1376.917031 -754.229900 -107.911987 426300.000000 1.000000 1.000000 -1250971.750000 3.000000 
4646.520469 -479.992046 -74.720703 580764.000000 7.000000 6.000000 -1250923.125000 0.000000 
4637.413047 -683.356182 -107.996948 43361.000000 1.000000 1.000000 -1251143.125000 12.000000 
63.036582 -413.065654 -63.091309 137140.000000 7.000000 6.000000 -1251094.625000 0.000000 
2496.637656 -1026.181499 -108.355225 562217.000000 7.000000 2.000000 -1250927.375000 0.000000 
4547.812461 -798.074504 -107.992554 43364.000000 1.000000 1.000000 -1251143.125000 18.000000 
3064.944297 -1189.818187 -107.977417 134712.000000 1.000000 1.000000 -1251096.000000 15.000000 
-1001.862832 -944.132671 -107.949341 425816.000000 1.000000 1.000000 -1250972.000000 9.000000 
-2607.776895 -912.039592 -108.205200 485637.000000 6.000000 2.000000 -1250954.125000 0.000000 
-1195.408242 -990.322673 -107.790649 503630.000000 3.000000 3.000000 -1250948.375000 0.000000 
1489.889609 -587.900493 -107.814331 554591.000000 2.000000 2.000000 -1250929.875000 0.000000 
-2657.021035 -745.634014 -107.918701 436791.000000 4.000000 3.000000 -1250966.125000 0.000000 
1306.505820 -636.717388 -107.882080 327880.000000 1.000000 1.000000 -1251035.875000 3.000000 
-245.615273 -596.048931 -107.961060 387670.000000 1.000000 1.000000 -1250994.625000 14.000000 
4575.249961 -760.713481 -107.959839 43433.000000 1.000000 1.000000 -1251143.125000 16.000000 
4187.809531 -357.443340 -53.512085 580065.000000 6.000000 2.000000 -1250923.125000 0.000000 
-1062.366738 -1049.914104 -107.792114 506150.000000 3.000000 3.000000 -1250947.500000 0.000000 
3099.979453 -470.720439 -72.833984 204547.000000 1.000000 1.000000 -1251073.500000 2.000000 
3595.145469 -698.314800 -107.869141 216306.000000 1.000000 1.000000 -1251070.000000 0.000000 
-1303.369668 -1304.535686 -67.268066 442894.000000 1.000000 1.000000 -1250963.750000 7.000000 
4702.342734 -594.773052 -107.947388 43499.000000 1.000000 1.000000 -1251143.125000 9.000000 
3887.478477 -1035.482830 -108.026855 305677.000000 7.000000 4.000000 -1251049.250000 0.000000 
-213.345742 -990.177776 -108.004150 175487.000000 7.000000 4.000000 -1251082.375000 0.000000 
1652.977500 -1048.374675 -108.071899 140926.000000 1.000000 1.000000 -1251092.625000 0.000000 
