ply
format ascii 1.0
comment Created by CloudCompare v2.12 alpha
comment Created 6/8/2021 9:21 PM
obj_info Generated by CloudCompare!
element vertex 456
property double x
property double y
property double z
property float scalar_fullwaveIndex
property float scalar_NumberOfReturns
property float scalar_ReturnNumber
property float scalar_GpsTime
property float scalar_Intensity
property float scalar_Original_cloud_index
end_header
5799.209922 -324.483135 -15.328247 1469735.000000 1.000000 1.000000 -1129660.875000 2.000000 0.000000 
-981.522012 -646.522319 -14.541260 3190059.000000 6.000000 6.000000 -1129352.875000 0.000000 0.000000 
-4049.090127 -669.347515 -13.369995 4383980.000000 7.000000 5.000000 -1129288.625000 0.000000 0.000000 
1822.776328 -1251.672802 -17.549927 3176843.000000 1.000000 1.000000 -1129357.625000 1.000000 0.000000 
479.061973 -498.026958 -108.647949 507217.000000 4.000000 3.000000 -1129964.375000 0.000000 0.000000 
-4913.875039 -745.425823 -107.644775 11327522.000000 7.000000 6.000000 -1128473.125000 0.000000 1.000000 
-5379.145059 -693.287578 -11.112305 5578249.000000 7.000000 1.000000 -1129221.875000 0.000000 0.000000 
-3782.639199 -451.997661 -70.187134 7759418.000000 7.000000 3.000000 -1129010.125000 0.000000 1.000000 
-4893.675820 -1199.814891 -107.194946 11622503.000000 7.000000 7.000000 -1128434.500000 0.000000 1.000000 
-4524.572549 -600.315898 -15.065186 4981290.000000 7.000000 5.000000 -1129258.500000 0.000000 0.000000 
4692.415000 -1307.716899 -17.566650 1118325.000000 7.000000 5.000000 -1129803.250000 0.000000 0.000000 
-5005.661660 -1189.096202 -108.016846 11623763.000000 7.000000 4.000000 -1128434.250000 0.000000 1.000000 
-2898.011270 -877.469829 -172.715881 12787235.000000 2.000000 1.000000 -1128301.125000 0.000000 1.000000 
-4453.463418 -306.646587 -45.309814 8955013.000000 5.000000 1.000000 -1128821.750000 0.000000 1.000000 
-4437.589395 -1175.188793 -107.814453 11025473.000000 7.000000 5.000000 -1128515.125000 0.000000 1.000000 
-2067.104531 -1027.572612 -11.546753 3783101.000000 7.000000 3.000000 -1129318.375000 0.000000 0.000000 
2904.478477 -1442.732799 -14.991821 1695833.000000 3.000000 3.000000 -1129575.500000 0.000000 0.000000 
-3826.057900 -461.035381 -71.743408 7759628.000000 7.000000 3.000000 -1129010.125000 0.000000 1.000000 
-2464.783242 -533.072246 -107.835205 8637702.000000 7.000000 5.000000 -1128870.375000 0.000000 1.000000 
4630.325156 -280.955669 -13.487427 7270156.000000 3.000000 1.000000 -1129068.875000 0.000000 0.000000 
1393.021445 -320.865825 -15.202759 1706608.000000 7.000000 4.000000 -1129569.625000 0.000000 0.000000 
-2709.520059 -569.280498 -15.542114 3489167.000000 7.000000 4.000000 -1129333.500000 0.000000 0.000000 
31.149375 -1187.876689 -107.786743 9497304.000000 7.000000 5.000000 -1128741.750000 0.000000 1.000000 
-865.084023 -860.570110 -8.400513 7730458.000000 5.000000 3.000000 -1129016.125000 0.000000 1.000000 
-972.215859 -326.924297 -14.789551 2895006.000000 7.000000 2.000000 -1129373.625000 0.000000 0.000000 
3508.218711 -543.666118 -107.120117 11564618.000000 7.000000 7.000000 -1128446.000000 0.000000 1.000000 
3954.636680 -760.578594 -10.809570 2015399.000000 1.000000 1.000000 -1129485.250000 6.000000 0.000000 
1631.017539 -1127.985027 -109.067017 9187205.000000 7.000000 1.000000 -1128790.250000 0.000000 1.000000 
-1599.461465 -1463.248500 16.648560 7736329.000000 1.000000 1.000000 -1129014.750000 0.000000 1.000000 
-4339.966104 -1275.966198 -19.230835 6465222.000000 7.000000 7.000000 -1129152.125000 0.000000 0.000000 
-491.099160 -421.567729 -17.378418 4380213.000000 1.000000 1.000000 -1129289.750000 0.000000 0.000000 
-3742.450234 -615.869609 -13.425171 6764475.000000 4.000000 1.000000 -1129122.625000 0.000000 0.000000 
-4084.945596 -1337.389690 -15.840576 7058403.000000 6.000000 1.000000 -1129091.625000 0.000000 0.000000 
-5247.676675 -1295.510295 -19.620361 1692953.000000 7.000000 7.000000 -1129577.500000 0.000000 0.000000 
-3593.040811 -1184.744213 -14.998657 2590079.000000 7.000000 3.000000 -1129404.000000 0.000000 0.000000 
359.054648 -276.014141 -39.964600 12169906.000000 7.000000 1.000000 -1128370.625000 0.000000 1.000000 
2172.674766 -378.249004 -56.122925 8286583.000000 4.000000 4.000000 -1128929.875000 0.000000 1.000000 
-807.430215 -542.431621 -108.251099 10985644.000000 7.000000 3.000000 -1128523.750000 0.000000 1.000000 
943.678672 -491.555645 -91.245850 11273206.000000 2.000000 2.000000 -1128484.625000 0.000000 1.000000 
-2472.460977 -678.416729 -13.324219 3786320.000000 7.000000 6.000000 -1129317.250000 0.000000 0.000000 
-1014.267617 -496.542827 -107.897949 9800962.000000 2.000000 1.000000 -1128694.250000 1.000000 1.000000 
-3570.544961 -325.939434 -47.812256 10424800.000000 1.000000 1.000000 -1128599.500000 0.000000 1.000000 
4105.215781 -896.363628 -109.229980 8277696.000000 7.000000 1.000000 -1128931.250000 0.000000 1.000000 
-1807.369180 -274.900493 37.097534 12776314.000000 4.000000 2.000000 -1128303.000000 0.000000 1.000000 
4755.367148 -409.520122 -17.379761 1136524.000000 7.000000 7.000000 -1129794.750000 0.000000 0.000000 
-5400.189858 -293.631328 -14.943359 6772591.000000 7.000000 5.000000 -1129121.125000 0.000000 0.000000 
-2897.625527 -660.073528 195.495972 8641830.000000 4.000000 1.000000 -1128869.625000 0.000000 1.000000 
-2268.705605 -604.479961 -107.294556 8635112.000000 7.000000 7.000000 -1128871.125000 0.000000 1.000000 
655.714805 -300.289043 -14.989624 3194266.000000 1.000000 1.000000 -1129350.750000 0.000000 0.000000 
5193.438437 -478.779277 -17.867920 1756957.000000 1.000000 1.000000 -1129556.125000 8.000000 0.000000 
2322.041953 -294.759624 -14.745850 2604937.000000 1.000000 1.000000 -1129397.750000 1.000000 0.000000 
-3298.682656 -395.966045 -17.041992 3788838.000000 7.000000 5.000000 -1129316.375000 0.000000 0.000000 
-4557.012246 -764.296917 -107.839233 11914122.000000 7.000000 5.000000 -1128398.125000 0.000000 1.000000 
2945.759727 -491.242534 -92.581299 12164028.000000 7.000000 4.000000 -1128371.625000 0.000000 1.000000 
3007.080039 -495.585796 -104.305298 9473646.000000 2.000000 2.000000 -1128746.500000 0.000000 1.000000 
-71.418496 -480.689434 -18.886475 1701426.000000 7.000000 7.000000 -1129572.000000 0.000000 0.000000 
579.058555 -707.999370 -108.233398 8896563.000000 7.000000 3.000000 -1128833.625000 0.000000 1.000000 
2175.756797 -643.164470 -14.235840 2003695.000000 4.000000 4.000000 -1129488.375000 0.000000 0.000000 
699.529258 -1095.866985 -108.312256 10979696.000000 7.000000 4.000000 -1128524.875000 0.000000 1.000000 
3343.785117 -488.834941 -88.574341 11863938.000000 7.000000 1.000000 -1128407.625000 0.000000 1.000000 
-4395.252725 -988.395427 -11.199341 5574401.000000 7.000000 5.000000 -1129222.750000 0.000000 0.000000 
5324.093711 -842.491008 -8.846313 1143596.000000 6.000000 5.000000 -1129791.250000 0.000000 0.000000 
2923.393516 -987.806316 -108.445923 11867298.000000 7.000000 4.000000 -1128407.250000 0.000000 1.000000 
-3633.420449 -713.021221 -108.678833 10129542.000000 7.000000 1.000000 -1128642.000000 0.000000 1.000000 
-2457.192422 -1074.297893 -108.754028 8931633.000000 7.000000 1.000000 -1128826.250000 0.000000 1.000000 
4702.576133 -979.217571 -10.938354 6074560.000000 1.000000 1.000000 -1129184.250000 0.000000 0.000000 
-3676.211465 -1251.393199 -17.418701 5868053.000000 7.000000 4.000000 -1129202.625000 0.000000 0.000000 
-3615.370400 -1183.351299 -15.386719 3485525.000000 7.000000 3.000000 -1129335.000000 0.000000 0.000000 
4982.150352 -940.203472 -9.732788 1739253.000000 1.000000 1.000000 -1129559.875000 22.000000 0.000000 
5036.083945 -930.850994 -9.886841 6672286.000000 4.000000 4.000000 -1129132.250000 0.000000 0.000000 
-1496.713418 -727.756816 -11.567749 2593232.000000 7.000000 4.000000 -1129402.375000 0.000000 0.000000 
3886.014609 -948.880229 -9.983887 2008679.000000 1.000000 1.000000 -1129486.875000 7.000000 0.000000 
3933.313437 -1398.158306 -15.728149 1404631.000000 1.000000 1.000000 -1129687.375000 0.000000 0.000000 
4927.433555 -603.559795 -106.467163 10364958.000000 7.000000 7.000000 -1128611.375000 0.000000 1.000000 
-3687.791299 -1465.937801 89.175049 4378240.000000 6.000000 4.000000 -1129290.375000 0.000000 0.000000 
-5027.947305 -516.313457 -108.393066 13101672.000000 7.000000 2.000000 -1128269.000000 0.000000 1.000000 
-3993.350137 -965.718608 -107.787354 8947104.000000 7.000000 5.000000 -1128823.125000 0.000000 1.000000 
-4996.815713 -355.978374 -52.983154 10738681.000000 1.000000 1.000000 -1128553.750000 0.000000 1.000000 
-318.343301 -532.900249 -15.633545 2893468.000000 5.000000 1.000000 -1129374.375000 0.000000 0.000000 
-1861.434609 -1250.182415 -91.923340 199916.000000 7.000000 7.000000 -1130024.625000 0.000000 0.000000 
584.160117 -871.778911 -108.768188 8600953.000000 7.000000 1.000000 -1128878.875000 0.000000 1.000000 
-2382.505410 -745.785808 -108.029053 9227382.000000 6.000000 4.000000 -1128781.125000 0.000000 1.000000 
1388.846641 -332.823467 -15.441528 1706468.000000 7.000000 4.000000 -1129569.625000 0.000000 0.000000 
972.147422 -787.501873 -9.393433 2296435.000000 5.000000 1.000000 -1129437.625000 0.000000 0.000000 
4417.363242 -1108.744426 -14.287354 1118814.000000 7.000000 7.000000 -1129803.000000 0.000000 0.000000 
4197.550742 -276.204814 -34.394531 6972379.000000 6.000000 2.000000 -1129101.625000 0.000000 0.000000 
5551.670859 -1073.087017 -13.090942 1147798.000000 1.000000 1.000000 -1129788.750000 1.000000 0.000000 
-519.543496 -1109.924602 -107.192871 8909723.000000 7.000000 7.000000 -1128830.750000 0.000000 1.000000 
-4465.320596 -620.547588 -108.837524 8952984.000000 7.000000 1.000000 -1128822.125000 0.000000 1.000000 
-560.808633 -790.465374 -107.646729 8318152.000000 6.000000 5.000000 -1128922.500000 0.000000 1.000000 
486.194297 -346.308696 -51.654175 13066537.000000 7.000000 6.000000 -1128275.500000 0.000000 1.000000 
5161.299766 -526.940532 -16.817749 7269314.000000 5.000000 4.000000 -1129069.000000 0.000000 0.000000 
4777.963828 -1014.913127 -11.509155 7274494.000000 6.000000 3.000000 -1129068.125000 0.000000 0.000000 
-1045.658730 -621.743267 -14.490356 4379440.000000 1.000000 1.000000 -1129290.000000 0.000000 0.000000 
2046.634727 -478.157695 -73.561768 13063598.000000 7.000000 7.000000 -1128275.875000 0.000000 1.000000 
1207.926719 -1178.943401 -108.940308 9487925.000000 7.000000 2.000000 -1128744.000000 0.000000 1.000000 
5055.776328 -276.826274 -26.409424 6366319.000000 5.000000 4.000000 -1129160.500000 0.000000 0.000000 
-2075.616250 -297.834453 -13.653442 3192926.000000 7.000000 1.000000 -1129351.375000 0.000000 0.000000 
-3958.130410 -1233.249309 -16.964600 6463963.000000 7.000000 4.000000 -1129152.375000 0.000000 0.000000 
-3199.547158 -1071.792400 -108.017090 9531883.000000 7.000000 4.000000 -1128734.250000 0.000000 1.000000 
-5182.345132 -632.560527 -107.191406 9552884.000000 7.000000 7.000000 -1128729.875000 0.000000 1.000000 
1378.340781 -1469.081600 88.555542 2584420.000000 4.000000 1.000000 -1129406.875000 0.000000 0.000000 
4384.109336 -549.900249 -107.700928 8274266.000000 7.000000 6.000000 -1128931.875000 0.000000 1.000000 
-4384.456338 -1192.494213 -16.302246 6465922.000000 7.000000 5.000000 -1129152.000000 0.000000 0.000000 
-2184.813027 -652.136272 -107.645630 10406882.000000 7.000000 6.000000 -1128603.375000 0.000000 1.000000 
-230.018105 -879.369426 -107.471558 10983755.000000 7.000000 7.000000 -1128524.125000 0.000000 1.000000 
279.324668 -738.010295 -108.311157 11576096.000000 7.000000 4.000000 -1128444.250000 0.000000 1.000000 
-2859.515176 -350.222026 -51.987427 8938981.000000 1.000000 1.000000 -1128824.750000 0.000000 1.000000 
-3508.513955 -1200.235790 -108.422241 10719083.000000 7.000000 2.000000 -1128558.250000 0.000000 1.000000 
5706.207969 -811.589702 -9.717529 1156687.000000 4.000000 4.000000 -1129782.500000 0.000000 0.000000 
-1907.778848 -281.307842 -40.364868 12479024.000000 6.000000 2.000000 -1128334.000000 0.000000 1.000000 
3196.081016 -746.779888 -11.198242 2303939.000000 1.000000 1.000000 -1129434.250000 3.000000 0.000000 
569.165488 -818.093608 -109.230103 11276916.000000 7.000000 1.000000 -1128484.000000 0.000000 1.000000 
4994.876914 -606.263530 -14.684326 6069170.000000 1.000000 1.000000 -1129185.125000 0.000000 0.000000 
-2204.302773 -713.945415 -107.837646 8929672.000000 7.000000 5.000000 -1128826.625000 0.000000 1.000000 
-3145.657998 -1328.418193 -18.171021 4973453.000000 6.000000 6.000000 -1129260.875000 0.000000 0.000000 
-5443.019937 -781.450786 -107.644043 12516192.000000 7.000000 6.000000 -1128326.125000 0.000000 1.000000 
-3245.948037 -276.586162 -23.739746 12489172.000000 1.000000 1.000000 -1128332.125000 1.000000 1.000000 
-3685.227334 -1390.056285 -14.660645 4676651.000000 7.000000 1.000000 -1129276.250000 0.000000 0.000000 
5310.029258 -1449.045604 -14.672852 1431110.000000 1.000000 1.000000 -1129674.875000 42.000000 0.000000 
-4204.949014 -373.530742 -56.037842 10137731.000000 2.000000 1.000000 -1128640.250000 0.000000 1.000000 
-5267.277505 -1005.326519 -12.201050 4084656.000000 7.000000 6.000000 -1129302.250000 0.000000 0.000000 
-1313.288613 -1198.728008 -107.195557 8622723.000000 7.000000 7.000000 -1128873.750000 0.000000 1.000000 
5508.748984 -864.006328 -108.366577 540742.000000 6.000000 1.000000 -1129952.375000 0.000000 0.000000 
-5363.455850 -1124.160808 -14.809326 2889399.000000 7.000000 6.000000 -1129376.375000 0.000000 0.000000 
3172.368125 -1134.996318 -150.589478 1107614.000000 4.000000 4.000000 -1129807.125000 0.000000 0.000000 
1279.211875 -1197.061504 -16.841797 1994382.000000 7.000000 7.000000 -1129492.875000 0.000000 0.000000 
-4905.202188 -784.350627 -108.028931 11622922.000000 7.000000 4.000000 -1128434.375000 0.000000 1.000000 
-1140.339883 -1436.561397 -15.112915 3480491.000000 5.000000 3.000000 -1129336.625000 0.000000 0.000000 
-1578.176309 -1424.887294 -14.564941 3183757.000000 7.000000 2.000000 -1129355.875000 0.000000 0.000000 
3751.643516 -1418.082103 -15.356445 1992648.000000 1.000000 1.000000 -1129494.000000 6.000000 0.000000 
-672.073281 -943.857097 -9.208984 1995358.000000 7.000000 3.000000 -1129492.375000 0.000000 0.000000 
-4545.946328 -449.000713 -69.201294 13096002.000000 3.000000 2.000000 -1128270.250000 0.000000 1.000000 
418.567344 -1137.798809 -107.208252 8011343.000000 7.000000 7.000000 -1128971.750000 0.000000 1.000000 
-1690.065469 -1242.980297 -107.134277 200126.000000 7.000000 7.000000 -1130024.625000 0.000000 0.000000 
-1531.292031 -1198.266399 -108.754395 8921133.000000 7.000000 1.000000 -1128828.375000 0.000000 1.000000 
-1388.017129 -1182.623210 -108.420044 9215483.000000 7.000000 2.000000 -1128783.875000 0.000000 1.000000 
-52.135781 -441.667461 -67.797119 8606481.000000 2.000000 1.000000 -1128877.500000 0.000000 1.000000 
1095.890586 -1149.786296 -14.937744 2885634.000000 1.000000 1.000000 -1129378.250000 0.000000 0.000000 
-86.180703 -854.223491 -108.001343 9200363.000000 7.000000 4.000000 -1128787.250000 0.000000 1.000000 
-455.120645 -1466.521297 -34.284912 200195.000000 7.000000 4.000000 -1130024.625000 0.000000 0.000000 
-458.562051 -1465.862407 -33.871948 200195.000000 7.000000 5.000000 -1130024.625000 0.000000 0.000000 
-3148.421914 -376.762554 -16.432373 7356328.000000 1.000000 1.000000 -1129057.250000 0.000000 0.000000 
-277.720742 -1047.351421 -108.004761 8906923.000000 7.000000 4.000000 -1128831.375000 0.000000 1.000000 
-2860.713906 -484.233379 -16.646851 4681764.000000 4.000000 1.000000 -1129274.625000 0.000000 0.000000 
-3097.554482 -273.158916 58.407349 11008039.000000 1.000000 1.000000 -1128519.250000 3.000000 1.000000 
-2200.008828 -273.023906 67.107910 7748010.000000 2.000000 1.000000 -1129012.250000 0.000000 1.000000 
-5085.097451 -1463.717296 44.666870 2887649.000000 7.000000 3.000000 -1129377.250000 0.000000 0.000000 
-3849.926553 -982.759380 -10.980103 6762374.000000 6.000000 4.000000 -1129123.000000 0.000000 0.000000 
3671.880820 -1314.045909 -17.442017 1995727.000000 1.000000 1.000000 -1129492.125000 4.000000 0.000000 
-4231.401406 -406.140850 -17.118042 6173323.000000 7.000000 5.000000 -1129176.625000 0.000000 0.000000 
2304.828086 -288.361309 -13.951050 1711020.000000 7.000000 1.000000 -1129568.000000 0.000000 0.000000 
-883.396035 -512.795146 -107.816528 10392183.000000 7.000000 5.000000 -1128606.625000 0.000000 1.000000 
-2337.755410 -1014.108928 -107.206421 8634413.000000 7.000000 7.000000 -1128871.250000 0.000000 1.000000 
-4587.609658 -517.330547 -108.837036 8954594.000000 7.000000 1.000000 -1128821.875000 0.000000 1.000000 
-3974.952676 -457.754985 -18.400146 7063725.000000 4.000000 4.000000 -1129090.625000 0.000000 0.000000 
-5552.436807 -299.498638 -43.502930 9855213.000000 5.000000 2.000000 -1128682.750000 0.000000 1.000000 
978.316367 -553.317729 -108.474243 9485824.000000 7.000000 2.000000 -1128744.375000 0.000000 1.000000 
-3489.351357 -1369.306713 -15.574951 4378521.000000 7.000000 2.000000 -1129290.250000 0.000000 0.000000 
2635.331016 -1317.996501 -17.391113 2289374.000000 1.000000 1.000000 -1129441.625000 1.000000 0.000000 
-2577.090859 -712.088420 -107.631104 9229832.000000 6.000000 5.000000 -1128780.500000 0.000000 1.000000 
1832.176719 -594.041729 -107.702515 10374686.000000 7.000000 6.000000 -1128610.000000 0.000000 1.000000 
-2992.387246 -563.744243 -108.252319 12785974.000000 7.000000 3.000000 -1128301.250000 0.000000 1.000000 
-4304.982705 -1394.361888 -14.489746 4975830.000000 7.000000 1.000000 -1129260.250000 0.000000 0.000000 
-5498.023354 -376.575054 -56.565430 13402321.000000 2.000000 1.000000 -1128241.875000 0.000000 1.000000 
-4669.778359 -513.294170 -108.392456 10438312.000000 7.000000 2.000000 -1128596.375000 0.000000 1.000000 
4805.464805 -813.536785 -109.263550 8871367.000000 7.000000 2.000000 -1128838.000000 0.000000 1.000000 
-489.746133 -636.550273 -13.973022 3487424.000000 1.000000 1.000000 -1129334.250000 0.000000 0.000000 
2416.547812 -471.552959 -72.784546 11267887.000000 7.000000 7.000000 -1128485.500000 0.000000 1.000000 
1169.091758 -492.597759 -92.497559 12168507.000000 6.000000 5.000000 -1128370.750000 0.000000 1.000000 
-5126.325234 -668.590801 -107.645020 12807672.000000 7.000000 6.000000 -1128296.625000 0.000000 1.000000 
3293.669883 -1207.438488 -16.429077 6388372.000000 1.000000 1.000000 -1129157.750000 0.000000 0.000000 
-4659.557900 -1139.994792 -108.756714 11027993.000000 7.000000 1.000000 -1128514.375000 0.000000 1.000000 
-3926.682656 -802.668682 -107.598999 12498903.000000 7.000000 6.000000 -1128330.250000 0.000000 1.000000 
269.229941 -1253.942394 -86.840332 800099.000000 7.000000 2.000000 -1129893.375000 0.000000 0.000000 
-938.495156 -1291.844402 -17.493896 2886466.000000 7.000000 3.000000 -1129377.875000 0.000000 0.000000 
-2240.142617 -766.107585 -107.599487 8041933.000000 7.000000 6.000000 -1128964.875000 0.000000 1.000000 
-3267.804482 -779.536602 -107.836914 10716002.000000 7.000000 5.000000 -1128559.000000 0.000000 1.000000 
1058.448691 -779.921428 -107.555054 9189444.000000 7.000000 6.000000 -1128789.750000 0.000000 1.000000 
-3315.911660 -457.816265 -70.724854 8943532.000000 3.000000 2.000000 -1128823.875000 0.000000 1.000000 
1002.913535 -273.135112 62.994385 8297290.000000 1.000000 1.000000 -1128927.500000 1.000000 1.000000 
-765.447305 -387.870342 -59.259766 10093772.000000 2.000000 1.000000 -1128649.375000 0.000000 1.000000 
4967.782187 -1127.582317 -108.004150 8573797.000000 7.000000 5.000000 -1128884.250000 0.000000 1.000000 
-2583.940957 -703.051677 -12.108154 4381884.000000 4.000000 2.000000 -1129289.250000 0.000000 0.000000 
-5415.579751 -1013.737224 -12.703735 7661101.000000 7.000000 7.000000 -1129020.625000 0.000000 0.000000 
-425.664590 -432.053936 -17.357422 3192161.000000 4.000000 2.000000 -1129351.875000 0.000000 0.000000 
-4874.397012 -1004.602581 -108.232666 10734623.000000 7.000000 3.000000 -1128554.625000 0.000000 1.000000 
-4621.433145 -305.420024 -13.972656 2594698.000000 7.000000 3.000000 -1129401.625000 0.000000 0.000000 
-4514.922646 -733.278789 -11.372925 7064213.000000 6.000000 3.000000 -1129090.500000 0.000000 0.000000 
-3667.898477 -426.643779 -65.612671 7758858.000000 7.000000 4.000000 -1129010.250000 0.000000 1.000000 
-4054.314004 -497.412334 -16.390869 7360805.000000 4.000000 1.000000 -1129056.375000 0.000000 0.000000 
3670.545859 -579.018657 -107.079956 7979985.000000 7.000000 7.000000 -1128978.750000 0.000000 1.000000 
-263.678262 -1466.670894 89.159180 2586654.000000 7.000000 3.000000 -1129405.875000 0.000000 0.000000 
-1219.451699 -575.577373 -107.648071 9803692.000000 7.000000 6.000000 -1128693.625000 0.000000 1.000000 
-1107.642617 -678.539775 -107.733154 11881225.000000 7.000000 6.000000 -1128404.875000 0.000000 1.000000 
-4600.592568 -793.929607 -107.280640 11619142.000000 7.000000 7.000000 -1128435.375000 0.000000 1.000000 
-92.511270 -504.215557 -16.911255 2297972.000000 7.000000 3.000000 -1129436.750000 0.000000 0.000000 
3749.874961 -1290.228893 -17.883789 1405820.000000 3.000000 2.000000 -1129686.750000 0.000000 0.000000 
-2317.477578 -785.567913 -108.677246 9522082.000000 7.000000 1.000000 -1128736.250000 0.000000 1.000000 
-1225.625039 -359.379131 -53.668701 13370966.000000 7.000000 7.000000 -1128247.875000 0.000000 1.000000 
-3908.977090 -779.638225 -107.552124 8650444.000000 7.000000 6.000000 -1128867.875000 0.000000 1.000000 
-2514.577676 -814.555522 -107.813477 11299243.000000 7.000000 5.000000 -1128479.500000 0.000000 1.000000 
327.462363 -500.867168 -107.193359 10084954.000000 5.000000 5.000000 -1128651.125000 0.000000 1.000000 
-1045.728066 -276.563579 -24.343750 7734654.000000 1.000000 1.000000 -1129015.125000 3.000000 1.000000 
-1821.075723 -1391.482799 -15.730347 4077104.000000 5.000000 3.000000 -1129304.500000 0.000000 0.000000 
4163.551719 -618.955913 -14.349976 1723910.000000 1.000000 1.000000 -1129563.875000 2.000000 0.000000 
5127.852500 -979.099407 -10.777954 6371917.000000 3.000000 2.000000 -1129159.500000 0.000000 0.000000 
-4358.592813 -492.502422 -95.031372 11320661.000000 1.000000 1.000000 -1128474.750000 4.000000 1.000000 
-4781.725381 -1094.537395 -107.816040 12509053.000000 7.000000 5.000000 -1128328.000000 0.000000 1.000000 
-4133.240518 -1096.399578 -107.786255 9244534.000000 7.000000 5.000000 -1128777.625000 0.000000 1.000000 
4997.299766 -694.651592 -12.437134 1745899.000000 1.000000 1.000000 -1129558.500000 12.000000 0.000000 
-4296.846719 -1067.449077 -108.004517 10432083.000000 7.000000 4.000000 -1128597.875000 0.000000 1.000000 
-2388.265176 -448.239971 -69.687256 11296022.000000 3.000000 1.000000 -1128480.125000 0.000000 1.000000 
4414.567344 -1410.409999 -15.934814 7278974.000000 5.000000 5.000000 -1129067.250000 0.000000 0.000000 
4370.293906 -1251.022106 -93.285645 517853.000000 1.000000 1.000000 -1129961.500000 1.000000 0.000000 
-1494.018105 -661.459819 -107.279785 9807262.000000 7.000000 7.000000 -1128692.875000 0.000000 1.000000 
5726.751914 -868.464702 -8.334106 7569401.000000 7.000000 5.000000 -1129034.500000 0.000000 0.000000 
5588.109336 -902.938213 -108.000854 845739.000000 7.000000 5.000000 -1129874.000000 0.000000 0.000000 
-354.868691 -1441.753704 -45.021484 200475.000000 7.000000 1.000000 -1130024.625000 0.000000 0.000000 
5302.075156 -1146.303203 -14.889404 1442374.000000 1.000000 1.000000 -1129670.250000 19.000000 0.000000 
-1452.596719 -306.073833 -44.655396 12774705.000000 7.000000 6.000000 -1128303.250000 0.000000 1.000000 
4229.344687 -1449.497203 -14.735596 1405613.000000 1.000000 1.000000 -1129686.875000 1.000000 0.000000 
-872.371133 -1274.868694 -18.496460 7729548.000000 7.000000 6.000000 -1129016.375000 0.000000 1.000000 
-3433.825479 -590.137554 -107.191650 8053554.000000 7.000000 7.000000 -1128962.500000 0.000000 1.000000 
-806.032266 -1160.732585 -109.069214 12180406.000000 7.000000 2.000000 -1128368.750000 0.000000 1.000000 
-3672.563760 -1080.351787 -13.416504 6463754.000000 6.000000 4.000000 -1129152.500000 0.000000 0.000000 
3487.915000 -993.135112 -11.105469 2298763.000000 1.000000 1.000000 -1129436.375000 6.000000 0.000000 
-486.629922 -273.224956 87.701904 11279083.000000 3.000000 1.000000 -1128483.625000 0.000000 1.000000 
-4661.133340 -623.416240 -108.423462 9845273.000000 7.000000 2.000000 -1128684.625000 0.000000 1.000000 
-3613.173867 -1011.648479 -108.021606 12793674.000000 7.000000 4.000000 -1128299.875000 0.000000 1.000000 
3628.420859 -311.579570 -15.065796 2320322.000000 1.000000 1.000000 -1129431.375000 5.000000 0.000000 
4649.402305 -1065.855571 -107.546997 523803.000000 7.000000 7.000000 -1129959.375000 0.000000 0.000000 
-705.885781 -1360.703685 -16.441528 1991998.000000 7.000000 5.000000 -1129494.375000 0.000000 0.000000 
-4492.642617 -1091.302715 -108.835693 9544554.000000 7.000000 1.000000 -1128731.500000 0.000000 1.000000 
-5081.345254 -681.560405 -13.276123 7364232.000000 6.000000 5.000000 -1129055.750000 0.000000 0.000000 
2822.247031 -1290.120006 -17.964355 1994599.000000 1.000000 1.000000 -1129492.750000 0.000000 0.000000 
4230.198203 -1466.428401 -28.058105 1108734.000000 1.000000 1.000000 -1129806.750000 1.000000 0.000000 
5514.052695 -564.313945 -15.724854 1459727.000000 1.000000 1.000000 -1129664.125000 3.000000 0.000000 
-3820.566689 -835.718120 -108.837524 8649394.000000 7.000000 1.000000 -1128868.125000 0.000000 1.000000 
-1250.163125 -1171.283702 -107.210205 8326063.000000 7.000000 7.000000 -1128920.750000 0.000000 1.000000 
-2913.576211 -1218.859294 -108.020752 11898024.000000 7.000000 4.000000 -1128401.750000 0.000000 1.000000 
4043.968711 -1272.499889 -18.206299 7580114.000000 6.000000 4.000000 -1129032.750000 0.000000 0.000000 
3982.967734 -735.883220 -11.442383 1718309.000000 1.000000 1.000000 -1129565.500000 2.000000 0.000000 
-5473.841226 -1076.750896 -13.468994 6767970.000000 7.000000 5.000000 -1129121.875000 0.000000 0.000000 
-2663.568398 -468.595928 -17.422363 4086062.000000 7.000000 2.000000 -1129301.750000 0.000000 0.000000 
-4260.975381 -515.252300 -15.497925 3489864.000000 7.000000 1.000000 -1129333.250000 0.000000 0.000000 
-189.149453 -400.624004 -61.004517 11576235.000000 7.000000 5.000000 -1128444.250000 0.000000 1.000000 
5179.771445 -426.817607 -16.248779 7568913.000000 7.000000 1.000000 -1129034.625000 0.000000 0.000000 
5190.813437 -1045.018596 -109.128174 12162489.000000 7.000000 2.000000 -1128372.125000 0.000000 1.000000 
-4281.974893 -1187.747295 -108.421753 11023723.000000 7.000000 2.000000 -1128515.625000 0.000000 1.000000 
819.370078 -544.324932 -107.471802 10379585.000000 7.000000 7.000000 -1128609.250000 0.000000 1.000000 
-2077.140176 -926.394207 -106.953247 12484345.000000 7.000000 7.000000 -1128333.000000 0.000000 1.000000 
4447.111289 -497.972515 -17.354614 2034723.000000 1.000000 1.000000 -1129481.875000 9.000000 0.000000 
-2718.020059 -501.810527 -17.551758 3489657.000000 7.000000 5.000000 -1129333.250000 0.000000 0.000000 
-1281.017617 -660.243877 -13.435547 6451303.000000 1.000000 1.000000 -1129154.500000 0.000000 0.000000 
5501.135703 -1469.868099 -11.669189 832575.000000 1.000000 1.000000 -1129881.375000 11.000000 0.000000 
4332.166953 -624.400859 -107.391113 8274966.000000 7.000000 7.000000 -1128931.750000 0.000000 1.000000 
4010.691367 -554.703960 -109.070679 8574356.000000 7.000000 2.000000 -1128884.125000 0.000000 1.000000 
-1665.929727 -1169.658214 -107.566772 200546.000000 7.000000 6.000000 -1130024.625000 0.000000 0.000000 
-1218.427285 -582.249736 -108.833984 11286294.000000 7.000000 1.000000 -1128482.250000 0.000000 1.000000 
1538.581016 -1246.124401 -17.392090 7004792.000000 1.000000 1.000000 -1129097.625000 0.000000 0.000000 
1186.444297 -335.143169 -49.287109 9185523.000000 4.000000 3.000000 -1128790.625000 0.000000 1.000000 
-2128.853066 -486.984966 -17.665771 6163810.000000 1.000000 1.000000 -1129178.875000 0.000000 0.000000 
4951.744102 -577.390850 -108.728149 8869547.000000 7.000000 3.000000 -1128838.250000 0.000000 1.000000 
-1717.252969 -1378.455211 -16.157227 5264448.000000 1.000000 1.000000 -1129244.500000 0.000000 0.000000 
-3684.324746 -538.431255 -108.473633 13385594.000000 7.000000 2.000000 -1128245.375000 0.000000 1.000000 
-5146.188516 -1213.179607 -18.552490 2291246.000000 7.000000 7.000000 -1129440.375000 0.000000 0.000000 
1198.122031 -1249.685192 -100.166870 801709.000000 7.000000 2.000000 -1129893.000000 0.000000 0.000000 
-4373.532998 -1281.381115 -16.504639 2888350.000000 7.000000 2.000000 -1129377.000000 0.000000 0.000000 
2611.095664 -982.988689 -106.770264 9478476.000000 7.000000 7.000000 -1128745.875000 0.000000 1.000000 
-844.488320 -1172.740886 -108.220581 8025553.000000 7.000000 3.000000 -1128968.375000 0.000000 1.000000 
912.965293 -431.117412 -65.721680 8595282.000000 4.000000 4.000000 -1128880.125000 0.000000 1.000000 
-5317.353311 -1205.274486 -107.210327 12219183.000000 7.000000 7.000000 -1128360.125000 0.000000 1.000000 
-1330.573281 -705.951274 -108.012817 9509762.000000 7.000000 4.000000 -1128739.000000 0.000000 1.000000 
1405.191367 -1021.470684 -108.275024 9485685.000000 7.000000 4.000000 -1128744.375000 0.000000 1.000000 
469.524863 -1038.844890 -108.218994 8306603.000000 7.000000 3.000000 -1128925.250000 0.000000 1.000000 
-3938.958047 -1205.802288 -107.209961 11019873.000000 7.000000 7.000000 -1128516.500000 0.000000 1.000000 
-3993.777383 -973.070110 -107.814575 12204063.000000 7.000000 5.000000 -1128364.000000 0.000000 1.000000 
-2754.186074 -283.448589 -14.526245 6761889.000000 1.000000 1.000000 -1129123.125000 0.000000 0.000000 
-1764.172402 -979.212505 -108.473755 11293084.000000 7.000000 2.000000 -1128480.875000 0.000000 1.000000 
4137.935508 -979.356304 -108.515381 519604.000000 7.000000 1.000000 -1129960.875000 0.000000 0.000000 
-2712.953652 -1452.041301 -14.515137 5565515.000000 4.000000 2.000000 -1129224.875000 0.000000 0.000000 
-3936.738320 -1064.858989 -107.600952 11907613.000000 7.000000 6.000000 -1128399.625000 0.000000 1.000000 
-2547.147012 -366.572246 -55.615234 7750670.000000 7.000000 1.000000 -1129011.750000 0.000000 1.000000 
4589.391562 -1142.692607 -14.819458 1717549.000000 1.000000 1.000000 -1129565.750000 14.000000 0.000000 
3932.860312 -805.575786 -9.709473 1417510.000000 4.000000 3.000000 -1129681.250000 0.000000 0.000000 
-3512.235391 -1273.225994 -18.555908 5569923.000000 7.000000 6.000000 -1129224.000000 0.000000 0.000000 
-3512.853066 -1235.076000 -107.073853 8941574.000000 7.000000 7.000000 -1128824.250000 0.000000 1.000000 
-2304.502480 -1198.698986 -107.816650 9817693.000000 7.000000 5.000000 -1128690.500000 0.000000 1.000000 
-5060.709146 -381.219951 -58.265137 8958864.000000 6.000000 1.000000 -1128821.125000 0.000000 1.000000 
3649.307578 -388.924541 -58.781860 10366987.000000 7.000000 7.000000 -1128611.125000 0.000000 1.000000 
1461.611289 -1228.642498 -16.992432 2291187.000000 1.000000 1.000000 -1129440.375000 0.000000 0.000000 
5617.667930 -477.253276 -17.459595 6966494.000000 6.000000 2.000000 -1129102.750000 0.000000 0.000000 
-2156.389199 -997.142620 -108.835693 11593454.000000 7.000000 1.000000 -1128440.875000 0.000000 1.000000 
-4327.336953 -273.174175 86.757446 13389161.000000 1.000000 1.000000 -1128244.750000 0.000000 1.000000 
-360.017617 -1354.973491 -16.567871 6732142.000000 1.000000 1.000000 -1129127.125000 0.000000 0.000000 
-1202.328652 -697.238872 -107.835938 8030662.000000 7.000000 5.000000 -1128967.375000 0.000000 1.000000 
1627.075156 -302.567363 -44.499878 8290922.000000 2.000000 1.000000 -1128928.875000 0.000000 1.000000 
-3324.622109 -276.194194 -33.553223 7654668.000000 6.000000 2.000000 -1129021.875000 0.000000 0.000000 
-2068.945840 -911.588176 -10.305542 2591761.000000 7.000000 7.000000 -1129403.125000 0.000000 0.000000 
-3287.351113 -590.111309 -107.206055 8646103.000000 7.000000 7.000000 -1128868.750000 0.000000 1.000000 
-2072.359414 -1318.904308 -17.606201 2588891.000000 7.000000 5.000000 -1129404.750000 0.000000 0.000000 
-65.847207 -453.654277 -69.211060 13367677.000000 7.000000 7.000000 -1128248.375000 0.000000 1.000000 
-5377.462441 -1363.658214 -15.916016 3784284.000000 7.000000 3.000000 -1129318.000000 0.000000 0.000000 
-5211.648110 -1199.280986 -107.827759 11922033.000000 7.000000 5.000000 -1128396.125000 0.000000 1.000000 
-898.716348 -1020.489971 -107.598511 9505773.000000 7.000000 6.000000 -1128739.875000 0.000000 1.000000 
-2591.188027 -749.639690 -11.119629 6460608.000000 2.000000 1.000000 -1129153.125000 0.000000 0.000000 
3577.828086 -275.815654 87.039673 13060098.000000 7.000000 7.000000 -1128276.250000 0.000000 1.000000 
-4197.391885 -1276.657604 -19.691650 3485384.000000 7.000000 7.000000 -1129335.000000 0.000000 0.000000 
-5180.553750 -1100.746196 -108.418945 12809493.000000 7.000000 2.000000 -1128296.250000 0.000000 1.000000 
697.009727 -1005.900615 -109.067383 10085515.000000 7.000000 1.000000 -1128651.000000 0.000000 1.000000 
-2658.125527 -1396.086498 -16.102173 2290128.000000 7.000000 6.000000 -1129441.000000 0.000000 0.000000 
3859.841758 -618.074443 -107.281128 9769817.000000 7.000000 7.000000 -1128700.625000 0.000000 1.000000 
-406.584023 -690.646892 -108.619751 12175646.000000 7.000000 3.000000 -1128369.625000 0.000000 1.000000 
5051.017539 -990.307903 -109.264893 8572747.000000 7.000000 2.000000 -1128884.375000 0.000000 1.000000 
5077.034141 -679.795208 -12.957275 1139465.000000 7.000000 6.000000 -1129793.250000 0.000000 0.000000 
-3310.949502 -877.916973 -7.799805 6166535.000000 5.000000 2.000000 -1129178.250000 0.000000 0.000000 
-4479.456094 -821.295574 -107.734741 8356865.000000 7.000000 6.000000 -1128914.375000 0.000000 1.000000 
512.173301 -767.031475 -11.500610 1998160.000000 7.000000 7.000000 -1129490.750000 0.000000 0.000000 
-1729.873574 -932.542888 -107.734741 12184465.000000 7.000000 6.000000 -1128368.000000 0.000000 1.000000 
-695.560586 -398.097637 -16.442871 3192440.000000 5.000000 2.000000 -1129351.750000 0.000000 0.000000 
-4223.084756 -985.148601 -107.601196 10135423.000000 7.000000 6.000000 -1128640.750000 0.000000 1.000000 
5262.206992 -561.835186 -15.776733 1450906.000000 1.000000 1.000000 -1129667.125000 2.000000 0.000000 
-2463.480020 -776.929607 -10.441772 6163178.000000 1.000000 1.000000 -1129179.000000 0.000000 0.000000 
-4326.004922 -1345.625896 -17.031982 4976180.000000 7.000000 5.000000 -1129260.125000 0.000000 0.000000 
-4950.178262 -705.827983 -108.538208 8658285.000000 7.000000 3.000000 -1128866.375000 0.000000 1.000000 
-2101.554238 -1366.734508 -16.246948 4375375.000000 4.000000 2.000000 -1129291.000000 0.000000 0.000000 
-403.189004 -779.303813 -108.235352 8316192.000000 6.000000 3.000000 -1128922.875000 0.000000 1.000000 
646.290000 -541.809551 -109.450806 12469297.000000 7.000000 1.000000 -1128335.750000 0.000000 1.000000 
-742.055215 -681.527080 -12.873657 7035524.000000 1.000000 1.000000 -1129095.125000 0.000000 0.000000 
5349.385703 -813.485576 -9.575928 1144786.000000 6.000000 5.000000 -1129790.625000 0.000000 0.000000 
3849.829062 -465.180156 -18.193726 1722017.000000 1.000000 1.000000 -1129564.375000 1.000000 0.000000 
1321.637656 -584.719341 -108.003418 13364878.000000 7.000000 5.000000 -1128248.750000 0.000000 1.000000 
5601.772422 -280.016216 68.591675 1772983.000000 1.000000 1.000000 -1129553.000000 16.000000 0.000000 
-2935.874063 -273.869243 43.363403 10710749.000000 1.000000 1.000000 -1128560.000000 0.000000 1.000000 
-3164.210244 -945.259197 -9.736450 6759086.000000 4.000000 2.000000 -1129123.750000 0.000000 0.000000 
-1754.423867 -280.008770 85.535156 1700374.000000 7.000000 5.000000 -1129572.625000 0.000000 0.000000 
-3433.895303 -1197.493206 -108.017944 10422283.000000 7.000000 4.000000 -1128600.125000 0.000000 1.000000 
-2592.306680 -276.200908 -29.370239 7057010.000000 6.000000 2.000000 -1129092.000000 0.000000 0.000000 
-517.015176 -1448.364101 -14.931763 7622609.000000 1.000000 1.000000 -1129026.750000 0.000000 0.000000 
-915.979531 -739.247783 -107.599487 10097273.000000 7.000000 6.000000 -1128648.625000 0.000000 1.000000 
-4869.037881 -847.335002 -9.914551 5576360.000000 7.000000 7.000000 -1129222.250000 0.000000 0.000000 
-5085.856240 -1241.231792 -16.499268 6170240.000000 7.000000 2.000000 -1129177.375000 0.000000 0.000000 
-1346.923867 -923.895305 -9.849854 2889825.000000 7.000000 6.000000 -1129376.250000 0.000000 0.000000 
-1040.293008 -779.990215 -107.300415 8324102.000000 6.000000 6.000000 -1128921.125000 0.000000 1.000000 
-2222.487344 -1469.457698 87.092773 4374884.000000 5.000000 5.000000 -1129291.000000 0.000000 0.000000 
1324.002891 -1404.721813 -49.820557 502106.000000 7.000000 7.000000 -1129965.625000 0.000000 0.000000 
3062.799766 -1444.419506 -43.028076 804788.000000 7.000000 7.000000 -1129892.125000 0.000000 0.000000 
3521.723594 -720.087505 -107.302246 517855.000000 7.000000 7.000000 -1129961.500000 0.000000 0.000000 
-2636.673379 -1160.625896 -108.421143 10413323.000000 7.000000 2.000000 -1128602.000000 0.000000 1.000000 
-2730.835977 -688.464580 -12.660034 6758388.000000 1.000000 1.000000 -1129123.875000 0.000000 0.000000 
4057.627891 -1329.045208 -17.113647 6082751.000000 1.000000 1.000000 -1129183.375000 0.000000 0.000000 
-3697.306680 -1035.852092 -11.090454 6464174.000000 6.000000 1.000000 -1129152.375000 0.000000 0.000000 
-5029.612588 -1272.517314 -19.171753 7062951.000000 7.000000 7.000000 -1129090.750000 0.000000 0.000000 
5347.004844 -1356.430400 -16.547485 1437759.000000 1.000000 1.000000 -1129672.125000 36.000000 0.000000 
-1038.628945 -695.093181 -12.517700 7630312.000000 1.000000 1.000000 -1129025.875000 0.000000 0.000000 
2094.382773 -1135.859783 -106.548096 10973817.000000 7.000000 7.000000 -1128526.000000 0.000000 1.000000 
1650.830039 -365.200908 -53.661499 10971016.000000 7.000000 7.000000 -1128526.375000 0.000000 1.000000 
-4448.199990 -1029.038982 -107.212280 10433833.000000 7.000000 7.000000 -1128597.500000 0.000000 1.000000 
-1979.371621 -853.342571 -109.230103 13377266.000000 7.000000 1.000000 -1128246.875000 0.000000 1.000000 
1378.768516 -522.517559 -107.786133 9185314.000000 7.000000 5.000000 -1128790.625000 0.000000 1.000000 
4444.208945 -942.573711 -9.413574 7275895.000000 5.000000 2.000000 -1129067.875000 0.000000 0.000000 
988.287559 -1390.578502 -15.997559 6715063.000000 1.000000 1.000000 -1129128.125000 0.000000 0.000000 
2021.083945 -1297.227703 -17.774536 2880740.000000 1.000000 1.000000 -1129380.125000 1.000000 0.000000 
-319.057168 -770.252483 -108.676758 8315142.000000 6.000000 1.000000 -1128923.125000 0.000000 1.000000 
-5897.617349 -677.033977 126.558960 11635170.000000 5.000000 2.000000 -1128431.625000 0.000000 1.000000 
4020.077109 -1240.248210 -17.247437 1999862.000000 1.000000 1.000000 -1129489.875000 10.000000 0.000000 
1107.755820 -1242.708690 -17.469849 2884304.000000 1.000000 1.000000 -1129378.750000 0.000000 0.000000 
4350.300742 -1328.280010 -17.111450 1705996.000000 1.000000 1.000000 -1129569.875000 9.000000 0.000000 
-1930.527871 -384.141704 -57.873901 10402751.000000 2.000000 1.000000 -1128604.375000 0.000000 1.000000 
-3787.265908 -786.126689 -108.693848 11017982.000000 7.000000 1.000000 -1128517.000000 0.000000 1.000000 
-5290.369058 -994.285076 -12.498047 5576289.000000 7.000000 7.000000 -1129222.250000 0.000000 0.000000 
5594.454062 -1304.523387 -17.569458 1457992.000000 1.000000 1.000000 -1129664.750000 46.000000 0.000000 
779.247031 -788.714397 -108.003052 8598573.000000 7.000000 4.000000 -1128879.375000 0.000000 1.000000 
4292.915977 -813.559490 -108.508911 523314.000000 7.000000 1.000000 -1129959.500000 0.000000 0.000000 
-1549.534219 -563.545513 -108.027954 10103292.000000 7.000000 4.000000 -1128647.500000 0.000000 1.000000 
-4218.209023 -739.397075 -108.217285 10727832.000000 7.000000 3.000000 -1128556.125000 0.000000 1.000000 
-1066.273477 -278.736919 44.340454 5272223.000000 4.000000 1.000000 -1129243.000000 0.000000 0.000000 
5717.696250 -985.546001 -10.887451 1467924.000000 1.000000 1.000000 -1129661.375000 17.000000 0.000000 
720.802695 -893.447979 -9.372437 1699117.000000 7.000000 7.000000 -1129573.375000 0.000000 0.000000 
-389.112832 -299.526348 -42.047241 12770156.000000 7.000000 7.000000 -1128304.000000 0.000000 1.000000 
2468.802695 -1147.731792 -109.533447 12168298.000000 7.000000 2.000000 -1128370.875000 0.000000 1.000000 
-67.775430 -455.811260 -18.887939 1701636.000000 7.000000 7.000000 -1129571.875000 0.000000 0.000000 
-4744.445352 -1221.579296 -15.290039 3784565.000000 7.000000 1.000000 -1129317.875000 0.000000 0.000000 
-3569.612100 -1060.415813 -108.219727 11607523.000000 7.000000 3.000000 -1128438.000000 0.000000 1.000000 
3563.371055 -1220.495311 -16.903320 6086813.000000 1.000000 1.000000 -1129183.125000 0.000000 0.000000 
4014.692344 -870.196697 -7.944214 7577875.000000 4.000000 2.000000 -1129033.125000 0.000000 0.000000 
-3307.674111 -421.979961 -16.185791 5278304.000000 6.000000 1.000000 -1129241.250000 0.000000 0.000000 
3969.554648 -1298.247203 -68.022095 812138.000000 7.000000 7.000000 -1129889.750000 0.000000 0.000000 
-1186.449258 -358.154277 -53.273315 12475525.000000 7.000000 6.000000 -1128334.625000 0.000000 1.000000 
-3450.825723 -979.295330 -10.628662 5274383.000000 7.000000 4.000000 -1129242.500000 0.000000 0.000000 
424.072715 -609.276958 -13.781616 2595477.000000 6.000000 1.000000 -1129401.250000 0.000000 0.000000 
5628.043906 -1323.640209 -17.159058 1460723.000000 1.000000 1.000000 -1129663.875000 50.000000 0.000000 
-5598.438271 -367.826274 -56.046997 8664165.000000 7.000000 2.000000 -1128865.500000 0.000000 1.000000 
870.592734 -485.396709 -17.846313 2894873.000000 1.000000 1.000000 -1129373.750000 0.000000 0.000000 
-3783.125039 -1196.362285 -108.423706 10722163.000000 7.000000 2.000000 -1128557.500000 0.000000 1.000000 
2611.491172 -902.237896 -106.548096 10671977.000000 7.000000 7.000000 -1128567.875000 0.000000 1.000000 
-2378.458535 -603.571514 -107.281860 10704732.000000 7.000000 7.000000 -1128561.125000 0.000000 1.000000 
-1710.949746 -1154.567607 -108.473755 10996634.000000 7.000000 2.000000 -1128521.500000 0.000000 1.000000 
-762.052773 -737.830303 -107.281494 8911682.000000 6.000000 6.000000 -1128830.375000 0.000000 1.000000 
1304.469687 -1469.408794 47.744385 2584560.000000 1.000000 1.000000 -1129406.750000 0.000000 0.000000 
1477.317344 -960.127971 -108.008667 9484845.000000 7.000000 5.000000 -1128744.625000 0.000000 1.000000 
442.886680 -1321.984600 -17.363403 3773101.000000 1.000000 1.000000 -1129320.625000 0.000000 0.000000 
4298.357383 -1225.798503 -15.916748 6978816.000000 4.000000 1.000000 -1129100.625000 0.000000 0.000000 
3218.013633 -497.115459 -106.130005 10368877.000000 5.000000 5.000000 -1128610.875000 0.000000 1.000000 
-2328.466348 -944.758770 -9.925903 4974016.000000 4.000000 2.000000 -1129260.750000 0.000000 0.000000 
-195.081582 -927.368816 -9.597656 2591835.000000 7.000000 5.000000 -1129403.125000 0.000000 0.000000 
-417.043496 -489.497783 -84.575317 11578055.000000 1.000000 1.000000 -1128443.875000 0.000000 1.000000 
-1650.323770 -1094.736187 -107.135254 200966.000000 7.000000 7.000000 -1130024.625000 0.000000 0.000000 
-734.949746 -660.837078 -107.390137 12475316.000000 7.000000 7.000000 -1128334.625000 0.000000 1.000000 
-983.215371 -908.241802 -107.734985 11584145.000000 7.000000 6.000000 -1128442.750000 0.000000 1.000000 
-2752.269570 -1023.386394 -10.498413 2590990.000000 7.000000 2.000000 -1129403.500000 0.000000 0.000000 
2476.086875 -439.978374 -67.331543 11267537.000000 7.000000 7.000000 -1128485.500000 0.000000 1.000000 
3225.905234 -1301.232311 -17.866943 1402738.000000 7.000000 6.000000 -1129688.375000 0.000000 0.000000 
-2471.857949 -1267.852001 -17.254639 3185855.000000 7.000000 2.000000 -1129355.000000 0.000000 0.000000 
-1296.426309 -744.256328 -108.768677 10397503.000000 7.000000 1.000000 -1128605.500000 0.000000 1.000000 
3145.406211 -661.545085 -167.460083 516036.000000 3.000000 2.000000 -1129962.000000 0.000000 0.000000 
-701.536660 -912.131328 -9.093994 3781846.000000 2.000000 1.000000 -1129318.875000 0.000000 0.000000 
-1343.069863 -1076.381816 -12.804321 2888565.000000 7.000000 3.000000 -1129376.875000 0.000000 0.000000 
-4264.338662 -528.405376 -16.160889 4086758.000000 7.000000 3.000000 -1129301.500000 0.000000 0.000000 
1715.920859 -1162.525310 -108.620850 10080406.000000 7.000000 3.000000 -1128652.000000 0.000000 1.000000 
-2883.300820 -825.482708 -9.512939 5868126.000000 2.000000 2.000000 -1129202.625000 0.000000 0.000000 
-3378.122354 -759.310405 -107.645752 10126322.000000 7.000000 6.000000 -1128642.750000 0.000000 1.000000 
-4881.581826 -880.111919 -9.725098 3487973.000000 7.000000 7.000000 -1129334.000000 0.000000 0.000000 
5174.381797 -1049.569072 -108.126953 531782.000000 5.000000 2.000000 -1129956.250000 0.000000 0.000000 
-4926.621621 -352.764385 -14.310547 3490843.000000 7.000000 1.000000 -1129332.750000 0.000000 0.000000 
5475.605430 -273.139263 87.473389 5762290.000000 3.000000 1.000000 -1129209.000000 0.000000 0.000000 
-3375.605020 -766.896892 -9.649902 6167655.000000 4.000000 1.000000 -1129178.000000 0.000000 0.000000 
115.959434 -1074.490703 -13.152954 3184743.000000 1.000000 1.000000 -1129355.500000 0.000000 0.000000 
-5898.081704 -906.585491 133.494873 7068059.000000 1.000000 1.000000 -1129089.750000 0.000000 0.000000 
3362.298789 -938.864604 -107.645630 514285.000000 7.000000 7.000000 -1129962.500000 0.000000 0.000000 
-2051.944863 -1296.986614 -17.821777 5266827.000000 1.000000 1.000000 -1129244.125000 0.000000 0.000000 
4860.398398 -316.193828 -15.325684 1139674.000000 7.000000 6.000000 -1129793.125000 0.000000 0.000000 
5132.769492 -1225.950115 -107.810059 227697.000000 2.000000 2.000000 -1130017.750000 0.000000 0.000000 
-1942.678262 -1199.491313 -107.599243 9517673.000000 7.000000 6.000000 -1128737.250000 0.000000 1.000000 
3118.300742 -662.132122 -106.744507 10370137.000000 7.000000 7.000000 -1128610.750000 0.000000 1.000000 
2314.020469 -1301.077587 -17.698853 1993826.000000 2.000000 1.000000 -1129493.250000 0.000000 0.000000 
4809.015586 -840.901897 -106.742920 8871507.000000 7.000000 7.000000 -1128838.000000 0.000000 1.000000 
2879.375937 -1349.519786 -16.103760 1103202.000000 7.000000 2.000000 -1129809.125000 0.000000 0.000000 
-1326.221230 -484.941387 -74.593628 10989493.000000 3.000000 3.000000 -1128523.000000 0.000000 1.000000 
-2508.906777 -933.577373 -8.621460 5271796.000000 2.000000 1.000000 -1129243.125000 0.000000 0.000000 
4596.589805 -751.465374 -10.804932 1128474.000000 7.000000 2.000000 -1129798.625000 0.000000 0.000000 
1308.022422 -293.858623 -42.532349 9779264.000000 5.000000 2.000000 -1128699.125000 0.000000 1.000000 
-5218.291787 -412.113140 -17.341797 5877780.000000 7.000000 5.000000 -1129200.250000 0.000000 0.000000 
4021.148398 -550.985454 -108.001099 8574286.000000 7.000000 5.000000 -1128884.125000 0.000000 1.000000 
-4234.746133 -953.005779 -107.553955 13392524.000000 7.000000 6.000000 -1128244.000000 0.000000 1.000000 
-5226.326821 -1139.769573 -15.851929 7362061.000000 7.000000 7.000000 -1129056.250000 0.000000 0.000000 
-1469.220742 -772.182109 -107.644897 8624962.000000 7.000000 6.000000 -1128873.250000 0.000000 1.000000 
-2642.959023 -696.380596 -108.027954 9230672.000000 7.000000 4.000000 -1128780.250000 0.000000 1.000000 
-4023.508340 -273.215435 41.874756 9248241.000000 1.000000 1.000000 -1128776.750000 0.000000 1.000000 
310.012656 -631.322490 -14.873657 2297273.000000 7.000000 7.000000 -1129437.125000 0.000000 0.000000 
-2747.214395 -1445.835399 -15.231812 4971354.000000 4.000000 4.000000 -1129261.250000 0.000000 0.000000 
3705.431602 -718.487224 -11.908813 1416599.000000 5.000000 3.000000 -1129681.750000 0.000000 0.000000 
-3567.959268 -492.531963 -95.130127 10719711.000000 1.000000 1.000000 -1128558.125000 4.000000 1.000000 
5424.172812 -1065.626689 -106.235474 9767718.000000 7.000000 7.000000 -1128700.875000 0.000000 1.000000 
-396.160684 -786.505291 -10.055664 3188451.000000 4.000000 2.000000 -1129353.625000 0.000000 0.000000 
