ply
format ascii 1.0
comment Created by CloudCompare v2.12 alpha
comment Created 6/6/2021 12:23 AM
obj_info Generated by CloudCompare!
element vertex 464
property float x
property float y
property float z
property float scalar_fullwaveIndex
property float scalar_NumberOfReturns
property float scalar_ReturnNumber
property float scalar_GpsTime
property float scalar_Intensity
property float scalar_Original_cloud_index
end_header
2933.446289 -1431.942749 -45.848999 556922.000000 7.000000 2.000000 -727509.250000 0.000000 1.000000 
4238.995117 -1441.519165 -14.899658 1579019.000000 1.000000 1.000000 -727261.312500 5.000000 1.000000 
5566.543945 -1154.082153 -14.731323 788169.000000 5.000000 1.000000 -727453.625000 0.000000 1.000000 
4380.183594 -769.945801 -10.627563 4540611.000000 1.000000 1.000000 -726976.437500 0.000000 1.000000 
-3669.455566 -720.074707 -12.130615 3514649.000000 2.000000 2.000000 -727037.875000 0.000000 1.000000 
1150.253906 -274.035248 83.210449 9885720.000000 5.000000 3.000000 -726377.375000 0.000000 0.000000 
-4791.210449 -1467.238281 88.696411 1335798.000000 7.000000 6.000000 -727322.187500 0.000000 0.000000 
5402.208008 -271.988129 15.157593 10273594.000000 2.000000 2.000000 -726335.125000 0.000000 0.000000 
-4795.136719 -1466.596802 88.193848 1335798.000000 7.000000 7.000000 -727322.187500 0.000000 0.000000 
4903.733398 -1453.638428 -14.893311 775059.000000 7.000000 7.000000 -727459.937500 0.000000 1.000000 
5773.242188 -969.225830 -10.659790 6135795.000000 6.000000 4.000000 -726883.125000 0.000000 0.000000 
-5129.146973 -273.519745 43.654175 8170056.000000 2.000000 1.000000 -726611.125000 0.000000 0.000000 
5052.279297 -824.474792 -9.270508 2192105.000000 1.000000 1.000000 -727149.437500 0.000000 0.000000 
-2840.691406 -1470.781494 41.770630 1337087.000000 7.000000 2.000000 -727322.000000 0.000000 0.000000 
-4946.133301 -1056.695435 -107.825928 9918976.000000 7.000000 5.000000 -726371.187500 0.000000 1.000000 
-2842.373047 -1470.435303 41.487549 1337087.000000 7.000000 4.000000 -727322.000000 0.000000 0.000000 
4245.178711 -702.135803 -108.299316 7328902.000000 7.000000 4.000000 -726755.062500 0.000000 1.000000 
-2845.222656 -1469.848755 41.008057 1337087.000000 7.000000 6.000000 -727322.000000 0.000000 0.000000 
4374.667969 -1471.106323 86.055542 4545579.000000 7.000000 1.000000 -726975.437500 0.000000 0.000000 
-2642.233398 -1026.949219 -108.021240 8346236.000000 7.000000 4.000000 -726584.687500 0.000000 1.000000 
-3814.889648 -753.084717 -107.245483 10104448.000000 7.000000 7.000000 -726351.375000 0.000000 1.000000 
-3033.048340 -636.982178 -14.019775 6205722.000000 1.000000 1.000000 -726880.312500 0.000000 1.000000 
5231.017578 -925.877502 -9.514526 5140587.000000 4.000000 3.000000 -726944.125000 0.000000 0.000000 
-2898.438965 -1041.323608 89.812866 6983348.000000 6.000000 5.000000 -726803.000000 0.000000 0.000000 
5218.770508 -754.781250 -11.082397 3583970.000000 4.000000 3.000000 -727035.250000 0.000000 0.000000 
4744.969727 -272.344818 86.610107 9093555.000000 7.000000 2.000000 -726477.625000 0.000000 0.000000 
-4650.105469 -919.798889 -9.153931 2917795.000000 7.000000 4.000000 -727080.750000 0.000000 1.000000 
3844.795898 -1029.234375 -12.094727 3382449.000000 1.000000 1.000000 -727049.125000 0.000000 1.000000 
-3570.804443 -1094.803345 -108.487183 10493793.000000 7.000000 2.000000 -726312.062500 0.000000 1.000000 
-5090.879883 -822.733093 -107.549194 8362843.000000 7.000000 6.000000 -726581.500000 0.000000 1.000000 
-4496.399414 -272.960541 82.401245 10496872.000000 1.000000 1.000000 -726311.437500 1.000000 0.000000 
-2159.986328 -356.020233 -16.290771 1144760.000000 7.000000 6.000000 -727369.500000 0.000000 1.000000 
-3860.872559 -308.230804 -44.054199 7772800.000000 5.000000 5.000000 -726677.500000 0.000000 1.000000 
1638.621094 -786.680237 -10.302246 1152169.000000 7.000000 5.000000 -727367.187500 0.000000 1.000000 
5669.567383 -757.597900 -11.343262 5139528.000000 4.000000 4.000000 -726944.562500 0.000000 0.000000 
-3078.593262 -1462.452393 40.531860 6200614.000000 3.000000 2.000000 -726880.875000 0.000000 0.000000 
-2542.692383 -1466.730469 90.285767 1337363.000000 7.000000 3.000000 -727321.937500 0.000000 0.000000 
5670.130859 -398.503143 -59.029053 9683184.000000 7.000000 7.000000 -726400.750000 0.000000 1.000000 
-4308.951172 -637.209839 -14.234375 6795759.000000 2.000000 2.000000 -726826.312500 0.000000 1.000000 
-1243.924316 -799.752014 -109.169800 10286748.000000 7.000000 1.000000 -726333.312500 0.000000 1.000000 
-3704.220215 -885.247192 -7.669922 2326324.000000 7.000000 2.000000 -727131.125000 0.000000 1.000000 
363.479462 -273.411835 88.591553 8907988.000000 2.000000 1.000000 -726503.312500 0.000000 0.000000 
-1494.577148 -1466.811523 16.446045 1338468.000000 1.000000 1.000000 -727321.625000 1.000000 0.000000 
5555.643555 -764.117615 -10.926392 6532959.000000 6.000000 4.000000 -726852.687500 0.000000 0.000000 
4589.234375 -918.677795 -9.241455 1987728.000000 1.000000 1.000000 -727180.562500 1.000000 0.000000 
1208.940430 -1241.046631 -108.489380 7735725.000000 7.000000 2.000000 -726685.562500 0.000000 1.000000 
-3118.434082 -1085.671875 -13.319824 2326279.000000 7.000000 4.000000 -727131.125000 0.000000 1.000000 
-4859.214355 -1064.786987 -12.737915 6991211.000000 6.000000 3.000000 -726801.437500 0.000000 1.000000 
5081.008789 -849.715149 -9.413452 5738173.000000 4.000000 4.000000 -726908.500000 0.000000 0.000000 
5586.563477 -1178.108398 -105.933350 9291908.000000 7.000000 7.000000 -726451.250000 0.000000 1.000000 
1128.590820 -787.669434 -108.020630 7345230.000000 7.000000 4.000000 -726751.687500 0.000000 1.000000 
4302.225586 -863.050049 -8.451660 5739601.000000 1.000000 1.000000 -726908.125000 0.000000 0.000000 
5566.622070 -685.075623 -11.625000 4541620.000000 6.000000 1.000000 -726976.250000 0.000000 0.000000 
5678.192383 -843.368591 -8.944946 6334239.000000 6.000000 4.000000 -726869.125000 0.000000 0.000000 
-1221.436035 -701.150330 -11.929199 1540410.000000 7.000000 3.000000 -727271.625000 0.000000 1.000000 
5785.419922 -772.179138 -11.028687 3945367.000000 6.000000 5.000000 -727009.562500 0.000000 0.000000 
4149.595703 -273.468475 85.265747 6135109.000000 5.000000 4.000000 -726883.250000 0.000000 0.000000 
-1029.615723 -276.632294 -39.182983 7750672.000000 1.000000 1.000000 -726682.062500 3.000000 1.000000 
5089.911133 -843.222229 -8.325928 6932009.000000 6.000000 2.000000 -726809.062500 0.000000 0.000000 
-1294.013672 -275.961151 48.167358 3329825.000000 4.000000 2.000000 -727049.875000 0.000000 0.000000 
2870.959961 -1469.925659 40.983765 1756855.000000 1.000000 1.000000 -727222.625000 2.000000 0.000000 
5096.583008 -967.710205 -9.362549 6336126.000000 5.000000 1.000000 -726868.750000 0.000000 0.000000 
768.348083 -1463.869751 43.122437 2137411.000000 4.000000 3.000000 -727155.812500 0.000000 0.000000 
-935.353088 -405.463470 -61.491333 9696567.000000 6.000000 4.000000 -726398.937500 0.000000 1.000000 
4311.981445 -870.618591 -109.297119 8310221.000000 7.000000 2.000000 -726591.875000 0.000000 1.000000 
2537.584961 -1187.716064 -15.697876 1153965.000000 5.000000 2.000000 -727366.312500 0.000000 1.000000 
-4469.270508 -833.864136 -10.377075 2325541.000000 7.000000 7.000000 -727131.375000 0.000000 1.000000 
-1160.417480 -1470.366211 83.462769 1338882.000000 7.000000 2.000000 -727321.562500 0.000000 0.000000 
1383.017578 -1309.320190 -16.826660 1346016.000000 6.000000 1.000000 -727319.750000 0.000000 1.000000 
4257.720703 -1012.716797 -11.612671 5740705.000000 1.000000 1.000000 -726907.687500 0.000000 1.000000 
5586.341797 -1131.135620 -14.089233 4344970.000000 6.000000 2.000000 -726986.312500 0.000000 1.000000 
3344.714844 -1398.157715 -50.541260 559130.000000 7.000000 7.000000 -727508.437500 0.000000 1.000000 
4277.239258 -273.343231 41.918945 6533652.000000 3.000000 2.000000 -726852.562500 0.000000 0.000000 
4886.513672 -897.086731 -108.454468 375265.000000 7.000000 1.000000 -727543.437500 0.000000 1.000000 
-1135.881348 -1467.936401 88.267090 1338928.000000 6.000000 5.000000 -727321.562500 0.000000 0.000000 
5646.734375 -802.372314 -9.915894 5338938.000000 5.000000 4.000000 -726932.500000 0.000000 0.000000 
-377.900421 -1266.795654 -18.066650 6768808.000000 1.000000 1.000000 -726829.437500 0.000000 1.000000 
4810.000000 -924.020020 -9.737183 6137545.000000 4.000000 4.000000 -726882.750000 0.000000 0.000000 
-745.742737 -274.011810 83.242554 9499548.000000 1.000000 1.000000 -726424.187500 0.000000 0.000000 
5169.719727 -1459.735352 -14.100952 6537053.000000 6.000000 2.000000 -726851.875000 0.000000 1.000000 
-2898.438477 -984.917419 126.296753 6983578.000000 7.000000 6.000000 -726802.937500 0.000000 0.000000 
5688.614258 -751.645691 -11.497070 3585073.000000 5.000000 5.000000 -727035.000000 0.000000 0.000000 
-854.451721 -1469.611206 86.004272 2328952.000000 5.000000 3.000000 -727130.437500 0.000000 0.000000 
2719.102539 -525.275879 -108.380249 9294253.000000 7.000000 4.000000 -726451.000000 0.000000 1.000000 
5231.507813 -873.849792 -7.121338 4940947.000000 4.000000 1.000000 -726954.750000 0.000000 0.000000 
4246.252930 -761.637695 -10.803955 1982668.000000 1.000000 1.000000 -727181.125000 1.000000 1.000000 
-2898.041504 -878.334412 14.257690 1339387.000000 1.000000 1.000000 -727321.437500 0.000000 0.000000 
2484.973633 -278.948700 88.137573 1760022.000000 1.000000 1.000000 -727222.062500 3.000000 0.000000 
-1215.652344 -452.383148 -18.279541 2135932.000000 5.000000 5.000000 -727156.250000 0.000000 1.000000 
-4733.957031 -276.488373 -31.516602 7581533.000000 2.000000 1.000000 -726708.937500 0.000000 1.000000 
5453.013672 -536.221069 -107.892944 182476.000000 6.000000 4.000000 -727577.125000 0.000000 1.000000 
-4798.179688 -273.142548 42.039307 10499264.000000 1.000000 1.000000 -726310.937500 3.000000 0.000000 
2933.487305 -276.448822 -16.979248 6738493.000000 6.000000 3.000000 -726832.062500 0.000000 1.000000 
2618.248047 -721.335632 -107.255859 9295173.000000 7.000000 7.000000 -726450.875000 0.000000 1.000000 
-5672.972656 -298.983856 -14.960205 5433882.000000 5.000000 4.000000 -726928.937500 0.000000 1.000000 
5755.622070 -673.502136 -109.789551 9290298.000000 7.000000 2.000000 -726451.437500 0.000000 1.000000 
-4960.108887 -278.664154 42.491821 1339432.000000 7.000000 7.000000 -727321.437500 0.000000 0.000000 
3625.372070 -277.468597 -33.983032 8113248.000000 5.000000 5.000000 -726622.937500 0.000000 1.000000 
-2785.247070 -409.755707 -17.493042 2528083.000000 7.000000 6.000000 -727109.000000 0.000000 1.000000 
5636.206055 -900.521545 -9.211060 5339490.000000 4.000000 4.000000 -726932.375000 0.000000 0.000000 
-2898.027344 -866.506348 13.823975 1339433.000000 1.000000 1.000000 -727321.437500 0.000000 0.000000 
-4451.553711 -871.435913 -108.229736 8943362.000000 7.000000 3.000000 -726496.187500 0.000000 1.000000 
-5526.839844 -356.917572 -17.051392 6800449.000000 6.000000 6.000000 -726825.375000 0.000000 1.000000 
5263.701172 -887.487549 -8.549927 2393631.000000 1.000000 1.000000 -727124.000000 0.000000 0.000000 
5175.077148 -496.648529 -17.516479 1589592.000000 1.000000 1.000000 -727258.687500 0.000000 1.000000 
-5128.366211 -848.181519 -9.449951 5625519.000000 4.000000 4.000000 -726919.062500 0.000000 1.000000 
-2898.085938 -830.935120 12.486328 1339571.000000 1.000000 1.000000 -727321.437500 0.000000 0.000000 
-4897.396973 -1470.909912 35.203979 3310130.000000 7.000000 2.000000 -727052.687500 0.000000 0.000000 
2473.030273 -564.768066 -15.722046 2160873.000000 1.000000 1.000000 -727152.000000 1.000000 1.000000 
-3108.643555 -375.731781 -55.762939 10293278.000000 4.000000 4.000000 -726332.250000 0.000000 1.000000 
-1184.098633 -576.168579 -14.795410 1541100.000000 7.000000 2.000000 -727271.375000 0.000000 1.000000 
-4196.684570 -1461.946289 21.576538 2915864.000000 7.000000 6.000000 -727081.187500 0.000000 0.000000 
3673.916016 -273.880341 87.844482 9684977.000000 7.000000 6.000000 -726400.625000 0.000000 0.000000 
-3027.094482 -280.532562 86.328247 1934539.000000 7.000000 3.000000 -727189.562500 0.000000 0.000000 
4830.716797 -916.640137 -9.204956 2190956.000000 1.000000 1.000000 -727149.562500 1.000000 0.000000 
5351.744141 -275.218231 80.077637 10667400.000000 3.000000 1.000000 -726297.250000 0.000000 0.000000 
-1632.225586 -847.075928 -107.419067 10484180.000000 7.000000 7.000000 -726314.187500 0.000000 1.000000 
4985.268555 -1425.977539 -15.195557 1185252.000000 1.000000 1.000000 -727356.000000 3.000000 1.000000 
-5143.024902 -373.571136 -55.962891 8560182.000000 4.000000 3.000000 -726552.250000 0.000000 1.000000 
-3779.099609 -273.615448 43.055664 5627869.000000 4.000000 1.000000 -726918.250000 0.000000 0.000000 
-4953.114746 -279.638885 87.488159 3315649.000000 4.000000 2.000000 -727051.375000 0.000000 0.000000 
-5096.100098 -661.681396 -14.114990 5821617.000000 4.000000 4.000000 -726904.312500 0.000000 1.000000 
5266.847656 -891.198792 -8.634521 2393677.000000 1.000000 1.000000 -727124.000000 0.000000 0.000000 
-1799.387207 -273.443329 8.911987 9310165.000000 1.000000 1.000000 -726448.250000 3.000000 0.000000 
3578.333008 -280.987274 -40.738403 8113386.000000 7.000000 4.000000 -726622.937500 0.000000 1.000000 
205.611771 -274.984833 58.183716 1943928.000000 2.000000 2.000000 -727186.562500 0.000000 0.000000 
5699.442383 -1470.644653 84.496826 1802805.000000 1.000000 1.000000 -727214.250000 0.000000 0.000000 
4577.875977 -1464.921875 43.278564 3946980.000000 5.000000 3.000000 -727009.187500 0.000000 0.000000 
-329.752472 -1465.738647 45.067871 1340217.000000 7.000000 1.000000 -727321.312500 0.000000 0.000000 
5179.471680 -976.996643 -10.806519 4542909.000000 4.000000 3.000000 -726976.062500 0.000000 0.000000 
-3815.721924 -273.593231 42.645508 8551348.000000 1.000000 1.000000 -726554.000000 0.000000 0.000000 
-777.210022 -1227.299561 -16.394653 1736465.000000 7.000000 2.000000 -727228.625000 0.000000 1.000000 
2105.411133 -277.859955 2.972534 2157697.000000 1.000000 1.000000 -727152.187500 0.000000 0.000000 
-195.773483 -1469.190063 76.931152 1340447.000000 1.000000 1.000000 -727321.250000 0.000000 0.000000 
-4987.917480 -1471.335815 40.841553 2125117.000000 7.000000 2.000000 -727159.125000 0.000000 0.000000 
-5018.017578 -1038.984375 -108.722046 9725132.000000 7.000000 1.000000 -726393.375000 0.000000 1.000000 
557.410583 -986.706238 -108.846191 8323927.000000 7.000000 1.000000 -726589.375000 0.000000 1.000000 
4504.291016 -670.976440 -13.106445 2586603.000000 1.000000 1.000000 -727105.875000 0.000000 1.000000 
2865.169922 -1198.562622 -16.224243 1557302.000000 1.000000 1.000000 -727266.375000 1.000000 1.000000 
-2898.079102 -849.412292 55.777344 2327797.000000 1.000000 1.000000 -727130.750000 0.000000 0.000000 
-149.572311 -1468.735718 87.808350 1340539.000000 5.000000 4.000000 -727321.187500 0.000000 0.000000 
3086.278320 -1023.378845 -11.959839 5944350.000000 1.000000 1.000000 -726895.000000 0.000000 1.000000 
304.208466 -1469.148193 11.451904 1341506.000000 1.000000 1.000000 -727321.000000 1.000000 0.000000 
403.165985 -1470.098145 38.474487 1341736.000000 4.000000 1.000000 -727320.937500 0.000000 0.000000 
5679.274414 -728.620300 -11.765259 3584935.000000 5.000000 4.000000 -727035.000000 0.000000 0.000000 
5797.229492 -919.858093 -9.378784 2197715.000000 1.000000 1.000000 -727148.562500 0.000000 0.000000 
419.623505 -1469.237183 42.880127 1341782.000000 4.000000 3.000000 -727320.937500 0.000000 0.000000 
5635.684570 -379.490326 -16.288086 3943205.000000 7.000000 4.000000 -727010.062500 0.000000 1.000000 
4245.832031 -1433.162354 -15.388428 765858.000000 7.000000 7.000000 -727463.625000 0.000000 1.000000 
-2897.067871 -951.916199 31.321045 6592810.000000 5.000000 1.000000 -726847.625000 0.000000 0.000000 
3797.820313 -412.761566 -17.100098 4337108.000000 1.000000 1.000000 -726987.750000 0.000000 1.000000 
4160.639648 -939.596130 -10.147217 6736695.000000 4.000000 4.000000 -726832.375000 0.000000 1.000000 
4683.529297 -1209.167725 -15.492432 6139431.000000 4.000000 1.000000 -726882.375000 0.000000 1.000000 
4340.379883 -879.420105 -8.276367 1782475.000000 1.000000 1.000000 -727218.437500 2.000000 0.000000 
-5347.270020 -277.323334 43.075806 4458406.000000 5.000000 5.000000 -726978.000000 0.000000 0.000000 
-5514.901367 -278.143768 43.756958 4848578.000000 7.000000 5.000000 -726957.375000 0.000000 0.000000 
-2588.081543 -279.252533 37.488525 1342101.000000 7.000000 4.000000 -727320.812500 0.000000 0.000000 
5312.430664 -854.535828 -8.944214 6732737.000000 6.000000 5.000000 -726833.187500 0.000000 0.000000 
3422.907227 -280.185638 88.079834 5736798.000000 3.000000 1.000000 -726908.875000 0.000000 0.000000 
-1471.783691 -280.537811 84.770020 1739821.000000 6.000000 2.000000 -727227.750000 0.000000 0.000000 
-2736.902344 -943.837097 -108.720459 8152622.000000 7.000000 1.000000 -726614.562500 0.000000 1.000000 
-5041.211914 -907.192444 -108.736694 9336616.000000 7.000000 1.000000 -726442.875000 0.000000 1.000000 
-2554.188477 -280.179779 42.861328 1342147.000000 7.000000 3.000000 -727320.812500 0.000000 0.000000 
-2453.010742 -676.390747 -13.442749 2131652.000000 7.000000 6.000000 -727157.625000 0.000000 1.000000 
1786.833008 -403.425751 -16.970947 2153925.000000 1.000000 1.000000 -727152.562500 1.000000 1.000000 
5346.435547 -1204.613281 -16.482788 784213.000000 4.000000 4.000000 -727455.312500 0.000000 1.000000 
-3350.045410 -1433.037842 -15.144653 5423354.000000 1.000000 1.000000 -726930.687500 0.000000 1.000000 
5450.426758 -779.358337 -10.785889 5936386.000000 5.000000 5.000000 -726896.562500 0.000000 0.000000 
3102.475586 -968.018799 -0.505737 1763799.000000 5.000000 2.000000 -727221.375000 0.000000 0.000000 
5905.825195 -295.394745 -14.805664 993561.000000 7.000000 5.000000 -727405.250000 0.000000 1.000000 
5256.488281 -912.854492 -9.133423 1994350.000000 1.000000 1.000000 -727179.625000 1.000000 0.000000 
-2897.879395 -1017.918823 105.265381 6983440.000000 6.000000 3.000000 -726803.000000 0.000000 0.000000 
593.501404 -1466.830444 89.876099 1342242.000000 7.000000 1.000000 -727320.812500 0.000000 0.000000 
592.423767 -1466.415771 89.548462 1342242.000000 7.000000 2.000000 -727320.812500 0.000000 0.000000 
-2898.181641 -974.544495 127.268311 6008106.000000 2.000000 2.000000 -726893.937500 0.000000 0.000000 
-5661.062500 -478.282196 -18.640625 2523065.000000 7.000000 6.000000 -727110.500000 0.000000 1.000000 
-1397.961426 -1470.076416 40.310791 1931644.000000 7.000000 4.000000 -727190.250000 0.000000 0.000000 
-4121.940430 -1018.368408 -108.736450 9718278.000000 7.000000 1.000000 -726394.812500 0.000000 1.000000 
588.335388 -1464.842896 88.305664 1342242.000000 7.000000 7.000000 -727320.812500 0.000000 0.000000 
1459.224609 -276.196869 80.911133 10867913.000000 3.000000 2.000000 -726275.375000 0.000000 0.000000 
-3388.900146 -802.206421 -9.391235 2722756.000000 6.000000 2.000000 -727093.937500 0.000000 1.000000 
3498.776367 -1465.202148 51.223022 4945828.000000 2.000000 1.000000 -726952.375000 0.000000 0.000000 
-3409.248291 -554.318848 -108.020264 7963930.000000 7.000000 4.000000 -726644.500000 0.000000 1.000000 
-2898.191406 -806.727295 103.795776 2921846.000000 2.000000 2.000000 -727079.437500 0.000000 0.000000 
2334.936523 -280.869598 84.663330 3929872.000000 1.000000 1.000000 -727011.437500 0.000000 0.000000 
5839.495117 -669.038025 -12.682495 6929340.000000 7.000000 3.000000 -726809.500000 0.000000 0.000000 
279.955048 -1104.160156 -108.300171 9303222.000000 7.000000 4.000000 -726449.500000 0.000000 1.000000 
4849.204102 -666.870239 -13.225098 1787947.000000 1.000000 1.000000 -727217.562500 1.000000 1.000000 
5055.821289 -1470.849243 41.703247 3785588.000000 7.000000 1.000000 -727019.437500 0.000000 0.000000 
5887.154297 -710.614990 -12.248657 4144133.000000 6.000000 4.000000 -726997.562500 0.000000 0.000000 
-1990.679199 -952.693604 -108.020752 7758126.000000 7.000000 4.000000 -726680.562500 0.000000 1.000000 
5849.222656 -749.731995 -10.382813 6134599.000000 6.000000 2.000000 -726883.375000 0.000000 0.000000 
-2260.700195 -276.917694 88.710449 1342607.000000 6.000000 5.000000 -727320.687500 0.000000 0.000000 
-3902.925537 -1043.054932 -108.404907 9133434.000000 7.000000 2.000000 -726470.000000 0.000000 1.000000 
797.514587 -274.009247 83.418457 8124561.000000 1.000000 1.000000 -726620.875000 1.000000 0.000000 
5785.115234 -998.446289 -11.099976 3586545.000000 5.000000 3.000000 -727034.687500 0.000000 0.000000 
6102.000977 -1045.631714 151.540405 999219.000000 2.000000 1.000000 -727403.437500 1.000000 1.000000 
-263.524933 -720.266907 -11.994629 7161807.000000 1.000000 1.000000 -726782.125000 0.000000 1.000000 
-1971.357910 -276.190033 36.634888 8922568.000000 2.000000 1.000000 -726500.437500 0.000000 0.000000 
342.283661 -1463.214233 86.918457 6762643.000000 1.000000 1.000000 -726829.750000 1.000000 0.000000 
-4700.948730 -986.739502 -108.245483 9333948.000000 7.000000 3.000000 -726443.500000 0.000000 1.000000 
5274.976563 -781.078613 -10.179688 3944448.000000 5.000000 3.000000 -727009.812500 0.000000 0.000000 
5490.433594 -276.589447 45.098999 5933580.000000 3.000000 1.000000 -726897.125000 0.000000 0.000000 
-1407.346191 -1045.709473 -107.229248 7753618.000000 7.000000 7.000000 -726681.500000 0.000000 1.000000 
5246.104492 -1352.988770 -16.488647 4744527.000000 4.000000 2.000000 -726964.250000 0.000000 1.000000 
-5561.067871 -1051.460938 -108.407471 10118064.000000 7.000000 2.000000 -726348.250000 0.000000 1.000000 
2738.008789 -1467.072510 89.258545 6347998.000000 1.000000 1.000000 -726867.125000 0.000000 0.000000 
-5056.076660 -612.187866 -15.022949 3511794.000000 6.000000 5.000000 -727038.875000 0.000000 1.000000 
5661.900391 -963.154724 -10.777100 5140678.000000 4.000000 4.000000 -726944.125000 0.000000 0.000000 
2587.366211 -651.479309 -13.742188 6941628.000000 1.000000 1.000000 -726807.375000 0.000000 1.000000 
-4371.895020 -719.606628 -10.689331 3116930.000000 6.000000 1.000000 -727065.687500 0.000000 1.000000 
1160.048828 -1468.475952 88.243530 1343945.000000 2.000000 2.000000 -727320.312500 0.000000 0.000000 
2377.323242 -1465.703003 -38.176514 158466.000000 5.000000 5.000000 -727585.500000 0.000000 1.000000 
5466.863281 -992.623535 -10.000488 4144962.000000 5.000000 1.000000 -726997.437500 0.000000 0.000000 
1500.288086 -326.809784 -15.086914 757254.000000 7.000000 4.000000 -727466.750000 0.000000 1.000000 
3569.724609 -722.743835 -11.854248 1367456.000000 1.000000 1.000000 -727313.000000 0.000000 1.000000 
-5217.704102 -1406.843262 -14.580078 4452197.000000 4.000000 1.000000 -726979.625000 0.000000 1.000000 
4697.371094 -933.082825 -9.610107 4342672.000000 1.000000 1.000000 -726986.812500 0.000000 0.000000 
-1238.617676 -1054.685791 -107.606323 7752330.000000 7.000000 6.000000 -726681.750000 0.000000 1.000000 
-356.143097 -1442.027344 -14.363159 2330932.000000 4.000000 4.000000 -727129.875000 0.000000 1.000000 
-403.316925 -784.861328 -10.165894 1145911.000000 7.000000 5.000000 -727369.187500 0.000000 1.000000 
-3124.732178 -974.404846 -108.229370 9321850.000000 7.000000 3.000000 -726446.000000 0.000000 1.000000 
4859.829102 -1168.020874 -106.968750 9686174.000000 7.000000 7.000000 -726400.500000 0.000000 1.000000 
5676.668945 -720.721191 -12.264771 3584889.000000 5.000000 5.000000 -727035.000000 0.000000 0.000000 
895.377380 -1470.160034 85.193848 1938872.000000 4.000000 2.000000 -727188.312500 0.000000 0.000000 
3578.295898 -277.567474 43.854614 3575141.000000 1.000000 1.000000 -727036.312500 0.000000 0.000000 
-797.669983 -273.170746 7.344971 8136244.000000 1.000000 1.000000 -726618.187500 3.000000 0.000000 
-5651.719238 -661.069031 -108.004761 8561655.000000 7.000000 4.000000 -726551.937500 0.000000 1.000000 
-991.797913 -275.844818 43.474243 1345000.000000 6.000000 5.000000 -727320.062500 0.000000 0.000000 
-1412.702148 -1287.781860 -17.602173 1734854.000000 7.000000 3.000000 -727229.062500 0.000000 1.000000 
1482.722656 -1470.052856 40.552124 1345142.000000 2.000000 1.000000 -727320.000000 0.000000 0.000000 
5674.952148 -592.947021 -15.145264 5138608.000000 4.000000 3.000000 -726944.875000 0.000000 1.000000 
2931.724609 -273.110687 84.941162 10079289.000000 7.000000 4.000000 -726355.500000 0.000000 0.000000 
-894.390198 -273.868378 61.592285 1345230.000000 2.000000 1.000000 -727320.000000 0.000000 0.000000 
-4250.037109 -905.175537 -108.489258 7967611.000000 7.000000 2.000000 -726643.687500 0.000000 1.000000 
1393.382813 -1223.935791 -16.985840 1148167.000000 7.000000 5.000000 -727368.562500 0.000000 1.000000 
-2471.760742 -735.581543 -11.961914 2131330.000000 7.000000 6.000000 -727157.687500 0.000000 1.000000 
-2197.619141 -452.882660 -18.201172 1539719.000000 7.000000 6.000000 -727271.812500 0.000000 1.000000 
4934.916016 -882.026245 -8.352661 2391470.000000 1.000000 1.000000 -727124.312500 0.000000 0.000000 
-650.226624 -618.400635 -108.722778 8524900.000000 7.000000 1.000000 -726559.687500 0.000000 1.000000 
2214.787109 -273.438446 86.696167 8509491.000000 3.000000 3.000000 -726562.750000 0.000000 0.000000 
-3633.834229 -279.279510 44.156128 6405268.000000 2.000000 1.000000 -726864.500000 0.000000 0.000000 
-1528.855957 -699.528137 -107.229492 8920546.000000 7.000000 7.000000 -726500.875000 0.000000 1.000000 
-764.668518 -279.918304 86.352539 1345506.000000 5.000000 3.000000 -727319.937500 0.000000 0.000000 
1189.842773 -855.027039 -8.728271 1547268.000000 5.000000 5.000000 -727269.375000 0.000000 1.000000 
-4313.984863 -1314.038452 -17.726440 6011230.000000 2.000000 2.000000 -726893.500000 0.000000 1.000000 
-747.582581 -278.835663 89.452881 1345552.000000 5.000000 1.000000 -727319.875000 0.000000 0.000000 
3901.042969 -280.092010 89.019775 4735928.000000 1.000000 1.000000 -726966.125000 0.000000 0.000000 
-3895.843750 -1462.568726 53.333008 3509589.000000 3.000000 2.000000 -727039.437500 0.000000 0.000000 
-1921.228516 -959.110718 -108.846069 9703605.000000 7.000000 1.000000 -726397.687500 0.000000 1.000000 
-2267.670898 -370.536835 -17.215698 2331524.000000 6.000000 6.000000 -727129.750000 0.000000 1.000000 
5236.577148 -766.500244 -9.688965 5139621.000000 4.000000 1.000000 -726944.500000 0.000000 0.000000 
4946.929688 -664.355042 -13.385620 2788588.000000 1.000000 1.000000 -727090.375000 0.000000 1.000000 
5630.710938 -733.850037 -11.339355 4741076.000000 4.000000 2.000000 -726965.250000 0.000000 0.000000 
-4395.213867 -273.403412 56.231079 10885481.000000 1.000000 1.000000 -726269.500000 0.000000 0.000000 
-3677.978271 -1470.215454 41.880981 2916555.000000 6.000000 2.000000 -727081.062500 0.000000 0.000000 
-849.870667 -717.513733 -107.230347 8526602.000000 7.000000 7.000000 -726559.375000 0.000000 1.000000 
-4964.251465 -1055.432373 -108.228149 9919114.000000 7.000000 3.000000 -726371.125000 0.000000 1.000000 
1878.516602 -1470.136353 38.920776 1346937.000000 5.000000 1.000000 -727319.500000 0.000000 0.000000 
-3059.733887 -273.324677 43.303955 7573205.000000 2.000000 1.000000 -726710.500000 0.000000 0.000000 
-3211.143066 -921.330200 -107.231934 8350652.000000 7.000000 7.000000 -726583.937500 0.000000 1.000000 
5718.747070 -882.455811 -8.489624 2594788.000000 1.000000 1.000000 -727104.750000 0.000000 0.000000 
4855.668945 -882.831116 -108.159546 174564.000000 7.000000 3.000000 -727580.562500 0.000000 1.000000 
4190.584961 -917.694031 -8.248657 6338428.000000 3.000000 1.000000 -726868.250000 0.000000 0.000000 
-911.803284 -1464.405029 43.531494 2328814.000000 6.000000 5.000000 -727130.437500 0.000000 0.000000 
-602.157776 -1027.760132 -11.161743 7164240.000000 4.000000 1.000000 -726781.500000 0.000000 1.000000 
1402.141602 -946.472046 -107.254761 9887699.000000 7.000000 7.000000 -726377.062500 0.000000 1.000000 
5143.841797 -1282.576294 -17.819580 780349.000000 7.000000 2.000000 -727457.625000 0.000000 1.000000 
-1201.287598 -275.482635 48.791626 9111491.000000 1.000000 1.000000 -726474.687500 1.000000 0.000000 
-3479.678955 -1080.014648 -13.567139 3314917.000000 2.000000 2.000000 -727051.562500 0.000000 1.000000 
5615.507813 -991.454590 -9.891113 6335067.000000 6.000000 1.000000 -726868.937500 0.000000 0.000000 
-3579.248291 -1382.970459 -16.079468 3510832.000000 1.000000 1.000000 -727039.125000 0.000000 1.000000 
-1413.786621 -279.869354 86.916870 1938037.000000 4.000000 2.000000 -727188.562500 0.000000 0.000000 
5014.278320 -974.889526 -10.679565 4144135.000000 4.000000 2.000000 -726997.562500 0.000000 0.000000 
-2022.184570 -1049.123535 -108.229370 8147102.000000 7.000000 3.000000 -726615.750000 0.000000 1.000000 
5823.226563 -273.575409 82.076050 7322876.000000 7.000000 1.000000 -726755.875000 0.000000 0.000000 
-3516.443359 -299.856781 -43.175903 7575782.000000 4.000000 3.000000 -726710.062500 0.000000 1.000000 
-1523.391602 -935.320801 -108.489868 9506173.000000 7.000000 2.000000 -726423.000000 0.000000 1.000000 
132.119095 -277.149994 44.927856 1347991.000000 4.000000 2.000000 -727319.187500 0.000000 0.000000 
1529.839844 -612.145874 -14.610352 6948806.000000 1.000000 1.000000 -726806.437500 0.000000 1.000000 
20.920370 -1037.865479 -108.719849 7353924.000000 7.000000 1.000000 -726749.625000 0.000000 1.000000 
5791.747070 -633.279907 -14.000000 1194769.000000 2.000000 1.000000 -727352.687500 0.000000 1.000000 
304.274384 -279.050262 81.908813 1348543.000000 1.000000 1.000000 -727319.062500 1.000000 0.000000 
-948.581116 -276.548309 -21.220337 7362340.000000 1.000000 1.000000 -726747.812500 4.000000 1.000000 
-2314.074219 -990.291992 -107.178955 9901037.000000 7.000000 7.000000 -726374.812500 0.000000 1.000000 
318.852997 -279.635468 85.076416 1348589.000000 3.000000 3.000000 -727319.062500 0.000000 0.000000 
-317.209015 -873.273193 -8.183960 1938132.000000 3.000000 2.000000 -727188.500000 0.000000 1.000000 
-2406.478516 -1013.196411 -107.244751 8150046.000000 7.000000 7.000000 -726615.125000 0.000000 1.000000 
4112.892578 -383.482269 -58.442505 7720040.000000 7.000000 4.000000 -726688.687500 0.000000 1.000000 
-300.777374 -274.737030 24.935059 9693531.000000 1.000000 1.000000 -726399.437500 1.000000 0.000000 
341.040009 -276.446381 89.402954 1348681.000000 5.000000 4.000000 -727319.000000 0.000000 0.000000 
-4218.363770 -687.599548 -108.228271 8553052.000000 7.000000 3.000000 -726553.625000 0.000000 1.000000 
5410.764648 -854.714417 -8.554443 2194910.000000 1.000000 1.000000 -727149.000000 0.000000 0.000000 
2205.159180 -1467.881104 31.600098 1348778.000000 1.000000 1.000000 -727319.000000 4.000000 0.000000 
2223.373047 -1470.025635 39.314941 1348870.000000 2.000000 1.000000 -727318.937500 0.000000 0.000000 
1960.381836 -273.060638 42.155518 8510319.000000 5.000000 2.000000 -726562.625000 0.000000 0.000000 
-1977.273926 -350.568329 -52.860474 9701442.000000 6.000000 1.000000 -726398.062500 0.000000 1.000000 
1503.310547 -924.761292 -9.559204 6950093.000000 1.000000 1.000000 -726806.312500 0.000000 1.000000 
5829.886719 -809.203918 -10.655396 6134921.000000 6.000000 6.000000 -726883.312500 0.000000 0.000000 
754.682556 -872.956421 -8.262329 1148350.000000 7.000000 5.000000 -727368.500000 0.000000 1.000000 
4879.055664 -775.211426 -9.323853 7131005.000000 6.000000 1.000000 -726786.937500 0.000000 0.000000 
2305.471680 -1466.913208 71.038452 1349422.000000 1.000000 1.000000 -727318.750000 3.000000 0.000000 
5315.122070 -845.765747 -7.562256 6732691.000000 6.000000 1.000000 -726833.187500 0.000000 0.000000 
2344.284180 -1469.637451 86.904541 1349652.000000 1.000000 1.000000 -727318.687500 1.000000 0.000000 
-3536.610840 -1470.592896 85.593506 3114540.000000 6.000000 2.000000 -727066.375000 0.000000 0.000000 
2817.554688 -955.281128 -109.494385 9099213.000000 7.000000 1.000000 -726476.937500 0.000000 1.000000 
5099.481445 -1468.432739 18.900513 4147171.000000 2.000000 2.000000 -726996.875000 0.000000 0.000000 
-5547.581543 -275.366669 82.248535 9342226.000000 1.000000 1.000000 -726441.687500 0.000000 0.000000 
5810.196289 -719.564148 -12.428345 6929616.000000 7.000000 6.000000 -726809.437500 0.000000 0.000000 
2526.689453 -1469.969238 39.633911 1350941.000000 2.000000 1.000000 -727318.312500 0.000000 0.000000 
1163.363281 -391.441376 -59.916748 7927912.000000 4.000000 1.000000 -726653.125000 0.000000 1.000000 
3671.350586 -1185.725708 -16.080811 5943152.000000 1.000000 1.000000 -726895.250000 0.000000 1.000000 
5542.019531 -628.546143 -108.379761 7717603.000000 7.000000 4.000000 -726689.000000 0.000000 1.000000 
2536.880859 -1468.439941 43.489868 1351033.000000 1.000000 1.000000 -727318.250000 2.000000 0.000000 
5229.280273 -721.935730 -10.799927 4940027.000000 3.000000 1.000000 -726955.312500 0.000000 0.000000 
-4419.293457 -1097.999390 -13.738525 4454867.000000 1.000000 1.000000 -726978.937500 0.000000 1.000000 
-4446.583008 -277.231171 44.210327 6798013.000000 4.000000 2.000000 -726825.812500 0.000000 0.000000 
1038.915039 -290.548553 -42.750122 9493478.000000 7.000000 2.000000 -726425.187500 0.000000 1.000000 
993.687927 -277.600067 44.140381 1351166.000000 3.000000 2.000000 -727318.250000 0.000000 0.000000 
-4035.748779 -1469.945557 40.794067 2718431.000000 7.000000 3.000000 -727095.125000 0.000000 0.000000 
5156.743164 -748.082642 -9.999390 6931411.000000 6.000000 1.000000 -726809.125000 0.000000 0.000000 
5233.878906 -888.968018 -8.588745 4941039.000000 4.000000 3.000000 -726954.687500 0.000000 0.000000 
5840.738281 -775.153931 -10.311768 6134737.000000 6.000000 3.000000 -726883.312500 0.000000 0.000000 
-4825.441895 -1409.133179 -15.672241 3508207.000000 4.000000 3.000000 -727039.750000 0.000000 1.000000 
1105.708984 -274.494843 69.845703 1351672.000000 1.000000 1.000000 -727318.062500 0.000000 0.000000 
5110.274414 -1302.803589 -17.417603 779659.000000 7.000000 2.000000 -727457.937500 0.000000 1.000000 
5345.585938 -965.606689 -10.830933 3945552.000000 5.000000 5.000000 -727009.500000 0.000000 0.000000 
4242.524414 -1367.236938 -56.510620 565662.000000 5.000000 3.000000 -727506.625000 0.000000 1.000000 
2721.613281 -275.000336 89.207275 3932263.000000 2.000000 1.000000 -727011.375000 0.000000 0.000000 
53.564415 -860.144897 -8.458618 7159347.000000 1.000000 1.000000 -726782.562500 0.000000 1.000000 
2647.065430 -1467.340454 89.003662 1351907.000000 1.000000 1.000000 -727317.937500 1.000000 0.000000 
1173.624023 -279.787323 86.473755 1351948.000000 1.000000 1.000000 -727317.937500 0.000000 0.000000 
3640.730469 -276.012543 -31.801392 8113202.000000 5.000000 2.000000 -726622.937500 0.000000 1.000000 
-2077.326660 -273.489716 84.227417 9701671.000000 1.000000 1.000000 -726398.062500 1.000000 0.000000 
1182.447266 -278.784149 88.348877 1351994.000000 1.000000 1.000000 -727317.875000 0.000000 0.000000 
5604.799805 -1342.615601 -60.672729 381289.000000 1.000000 1.000000 -727541.000000 1.000000 1.000000 
5233.435547 -849.977234 -8.947998 5140127.000000 4.000000 4.000000 -726944.312500 0.000000 0.000000 
3971.179688 -895.458496 -7.697021 6538206.000000 3.000000 1.000000 -726851.625000 0.000000 0.000000 
-5398.831543 -476.787445 -18.031738 6213444.000000 5.000000 4.000000 -726878.312500 0.000000 1.000000 
-2318.899414 -338.855927 -16.142456 2133538.000000 7.000000 6.000000 -727157.000000 0.000000 1.000000 
-2408.980469 -1030.173462 -108.405029 8733234.000000 7.000000 2.000000 -726527.062500 0.000000 1.000000 
-5333.290527 -926.419617 -108.406860 9533220.000000 7.000000 2.000000 -726417.000000 0.000000 1.000000 
-1599.862793 -866.689392 -107.231201 7366436.000000 7.000000 7.000000 -726746.812500 0.000000 1.000000 
2800.904297 -1469.844482 40.178101 1353196.000000 1.000000 1.000000 -727317.437500 1.000000 0.000000 
-2652.243652 -718.537109 -107.230591 9512336.000000 7.000000 7.000000 -726421.875000 0.000000 1.000000 
2809.474609 -1468.413574 43.447266 1353288.000000 1.000000 1.000000 -727317.375000 3.000000 0.000000 
-918.994690 -1053.318237 -108.227539 7749892.000000 7.000000 3.000000 -726682.250000 0.000000 1.000000 
2758.638672 -1298.500000 -17.774658 6744793.000000 1.000000 1.000000 -726831.125000 0.000000 1.000000 
-4194.382324 -273.267914 74.908569 2723628.000000 7.000000 6.000000 -727093.687500 0.000000 0.000000 
-1498.130371 -665.737427 -13.483643 2530478.000000 2.000000 2.000000 -727108.437500 0.000000 1.000000 
2901.666016 -1471.447144 84.381348 1354116.000000 2.000000 1.000000 -727317.062500 0.000000 0.000000 
2905.175781 -1470.272949 85.477295 1354162.000000 1.000000 1.000000 -727317.062500 6.000000 0.000000 
5444.548828 -794.794739 -9.843628 5936478.000000 5.000000 3.000000 -726896.562500 0.000000 0.000000 
5698.842773 -891.059448 -7.803955 6930582.000000 7.000000 2.000000 -726809.312500 0.000000 0.000000 
2916.065430 -1467.132446 89.037964 1354300.000000 1.000000 1.000000 -727317.000000 2.000000 0.000000 
184.373489 -745.815247 -107.051147 8715479.000000 7.000000 7.000000 -726531.062500 0.000000 1.000000 
-325.751007 -689.773132 -13.084595 1344541.000000 7.000000 6.000000 -727320.187500 0.000000 1.000000 
3101.891602 -1044.315186 121.836548 6343628.000000 2.000000 1.000000 -726867.500000 0.000000 0.000000 
-2486.487305 -1045.785278 -107.228027 8345040.000000 7.000000 7.000000 -726584.937500 0.000000 1.000000 
1703.430664 -279.729340 43.201538 1354617.000000 1.000000 1.000000 -727316.875000 2.000000 0.000000 
-4098.884277 -272.159882 87.666382 10299440.000000 1.000000 1.000000 -726331.187500 1.000000 0.000000 
-4722.819336 -1469.949829 87.788330 4841680.000000 7.000000 2.000000 -726959.875000 0.000000 0.000000 
-692.735901 -663.622620 -14.070923 1938131.000000 6.000000 6.000000 -727188.500000 0.000000 1.000000 
-5286.086914 -1462.613525 43.361938 2717187.000000 7.000000 2.000000 -727095.375000 0.000000 0.000000 
5486.376953 -274.264130 88.434814 5734400.000000 5.000000 3.000000 -726909.625000 0.000000 0.000000 
3005.504883 -1464.702515 16.490967 1355221.000000 3.000000 1.000000 -727316.687500 0.000000 0.000000 
2648.387695 -274.695648 36.423096 8900676.000000 4.000000 1.000000 -726504.437500 0.000000 0.000000 
4544.603516 -446.268890 -18.721802 7130684.000000 6.000000 6.000000 -726787.000000 0.000000 1.000000 
-2000.337402 -1231.696045 -107.178711 9509807.000000 7.000000 7.000000 -726422.312500 0.000000 1.000000 
3102.011719 -766.397827 18.074097 4137332.000000 3.000000 2.000000 -726998.625000 0.000000 0.000000 
5361.863281 -1034.540039 -11.390625 7130590.000000 7.000000 2.000000 -726787.000000 0.000000 0.000000 
1136.254883 -441.043915 -66.846924 9297702.000000 7.000000 7.000000 -726450.500000 0.000000 1.000000 
-2666.601074 -867.624512 -108.020996 7957766.000000 7.000000 4.000000 -726645.687500 0.000000 1.000000 
-5508.776855 -1013.033447 -108.228638 10506442.000000 7.000000 3.000000 -726309.312500 0.000000 1.000000 
2818.894531 -1462.813721 85.943848 6546441.000000 1.000000 1.000000 -726850.562500 0.000000 0.000000 
4770.019531 -280.661102 40.511719 5136448.000000 5.000000 3.000000 -726945.687500 0.000000 0.000000 
2843.416016 -381.924896 -57.548706 9489983.000000 7.000000 7.000000 -726425.687500 0.000000 1.000000 
4848.965820 -735.915344 -11.347046 980360.000000 4.000000 2.000000 -727410.875000 0.000000 1.000000 
-3152.071045 -1192.911865 -16.435303 1337915.000000 7.000000 6.000000 -727321.812500 0.000000 1.000000 
-2844.713867 -561.444092 -108.273926 10487951.000000 7.000000 3.000000 -726313.187500 0.000000 1.000000 
3067.024414 -1465.086426 44.276001 1355865.000000 2.000000 1.000000 -727316.437500 0.000000 0.000000 
-3679.019043 -1163.267578 -107.523560 10494621.000000 7.000000 6.000000 -726311.875000 0.000000 1.000000 
3104.469727 -1468.908569 62.417603 1356233.000000 1.000000 1.000000 -727316.312500 7.000000 0.000000 
5774.327148 -738.176636 -11.875977 3945183.000000 6.000000 5.000000 -727009.625000 0.000000 0.000000 
2438.443359 -1025.118530 -106.504150 9296645.000000 7.000000 7.000000 -726450.625000 0.000000 1.000000 
-5245.059082 -1342.191284 -16.711548 4842599.000000 4.000000 2.000000 -726959.375000 0.000000 1.000000 
3162.050781 -1469.268677 87.714478 1356877.000000 1.000000 1.000000 -727316.125000 6.000000 0.000000 
-2585.630371 -938.362244 -107.230225 9123314.000000 7.000000 7.000000 -726472.312500 0.000000 1.000000 
2467.899414 -388.468109 -16.692261 1759333.000000 1.000000 1.000000 -727222.187500 0.000000 1.000000 
-2200.782227 -274.481415 11.328491 8924500.000000 1.000000 1.000000 -726500.062500 1.000000 0.000000 
3202.232422 -1469.912720 -1.788818 1357338.000000 1.000000 1.000000 -727315.937500 3.000000 0.000000 
4404.666992 -1220.771118 -16.616089 769722.000000 7.000000 3.000000 -727462.000000 0.000000 1.000000 
-1126.227539 -1094.661865 -13.767334 2727684.000000 1.000000 1.000000 -727092.875000 0.000000 1.000000 
-4427.920410 -1427.791382 -15.180298 5815822.000000 2.000000 1.000000 -726905.625000 0.000000 1.000000 
2205.539063 -276.855927 10.238647 1357700.000000 1.000000 1.000000 -727315.812500 1.000000 0.000000 
-4149.701172 -1102.496704 -12.678345 2917704.000000 6.000000 1.000000 -727080.750000 0.000000 1.000000 
-702.423401 -648.685425 -107.616455 8525360.000000 7.000000 6.000000 -726559.625000 0.000000 1.000000 
-806.141663 -1120.708008 -106.988770 9894736.000000 7.000000 7.000000 -726375.875000 0.000000 1.000000 
-2898.210938 -1075.456421 59.551270 2722343.000000 2.000000 2.000000 -727094.062500 0.000000 0.000000 
3101.961914 -755.161926 153.932617 1161600.000000 1.000000 1.000000 -727363.750000 1.000000 1.000000 
6101.666016 -970.501343 199.364624 796538.000000 4.000000 1.000000 -727450.687500 0.000000 1.000000 
-457.848663 -836.182007 -7.975098 1541469.000000 7.000000 1.000000 -727271.312500 0.000000 1.000000 
494.037079 -889.831543 -106.841919 9301612.000000 7.000000 7.000000 -726449.812500 0.000000 1.000000 
-2343.008301 -536.828735 -16.019897 2330512.000000 6.000000 2.000000 -727130.000000 0.000000 1.000000 
-4526.205078 -1073.659546 -14.040161 6794470.000000 5.000000 5.000000 -726826.562500 0.000000 1.000000 
3303.678711 -1469.492554 44.008545 1358580.000000 1.000000 1.000000 -727315.562500 6.000000 0.000000 
5324.150391 -912.082092 -9.497070 3945230.000000 5.000000 5.000000 -727009.562500 0.000000 0.000000 
5152.912109 -278.619476 43.083496 5136631.000000 4.000000 4.000000 -726945.625000 0.000000 0.000000 
-5253.201172 -969.497498 -107.841187 10504464.000000 7.000000 5.000000 -726309.750000 0.000000 1.000000 
-471.429230 -356.158295 -52.151855 9498767.000000 6.000000 6.000000 -726424.312500 0.000000 1.000000 
2405.116211 -278.136932 60.299194 1359080.000000 1.000000 1.000000 -727315.375000 2.000000 0.000000 
-4958.845703 -275.923431 45.466187 2722339.000000 5.000000 1.000000 -727094.062500 0.000000 0.000000 
4877.419922 -799.106689 -9.975220 3781402.000000 4.000000 3.000000 -727020.312500 0.000000 0.000000 
-3617.187744 -996.812439 -108.722412 9520018.000000 7.000000 1.000000 -726420.187500 0.000000 1.000000 
2506.671875 -279.925507 85.183960 1359816.000000 1.000000 1.000000 -727315.187500 1.000000 0.000000 
-3692.436279 -970.970337 -108.735596 8743078.000000 7.000000 1.000000 -726525.125000 0.000000 1.000000 
3101.962891 -1073.454590 9.647339 1359820.000000 1.000000 1.000000 -727315.187500 1.000000 0.000000 
4166.268555 -871.934204 -8.218994 7133858.000000 5.000000 4.000000 -726786.312500 0.000000 0.000000 
4481.300781 -521.405273 -108.336304 174151.000000 7.000000 2.000000 -727580.750000 0.000000 1.000000 
2188.428711 -275.400848 82.295044 8509583.000000 5.000000 3.000000 -726562.687500 0.000000 0.000000 
5581.220703 -1098.581055 -14.666992 4344786.000000 6.000000 6.000000 -726986.375000 0.000000 1.000000 
-5151.567871 -1395.199585 -14.559570 3112605.000000 7.000000 1.000000 -727066.750000 0.000000 1.000000 
-4916.368652 -492.735199 -95.734253 9530643.000000 1.000000 1.000000 -726417.625000 4.000000 1.000000 
2266.177734 -1469.394653 87.419922 1749262.000000 1.000000 1.000000 -727224.875000 3.000000 0.000000 
-141.081100 -1251.548462 -87.881348 748468.000000 7.000000 7.000000 -727469.750000 0.000000 1.000000 
-3758.305664 -733.726746 -107.618042 8355068.000000 7.000000 6.000000 -726583.000000 0.000000 1.000000 
2523.736328 -278.157074 88.718750 1359954.000000 1.000000 1.000000 -727315.125000 1.000000 0.000000 
3101.979492 -1056.127441 118.880493 1359957.000000 1.000000 1.000000 -727315.125000 1.000000 0.000000 
4400.900391 -1469.852173 32.071655 3189571.000000 4.000000 2.000000 -727061.312500 0.000000 0.000000 
4869.195313 -279.942474 86.563965 2387052.000000 1.000000 1.000000 -727124.750000 0.000000 0.000000 
4856.025391 -1349.188965 -17.037476 4744482.000000 2.000000 2.000000 -726964.312500 0.000000 1.000000 
-4051.114258 -976.572510 -11.067627 6793229.000000 4.000000 4.000000 -726826.812500 0.000000 1.000000 
-3780.054443 -273.168793 86.323242 8356768.000000 1.000000 1.000000 -726582.687500 1.000000 0.000000 
-4719.185059 -1006.313293 -107.231689 10111624.000000 7.000000 7.000000 -726349.625000 0.000000 1.000000 
-2694.184082 -277.133514 36.602783 9316880.000000 2.000000 2.000000 -726446.937500 0.000000 0.000000 
-4793.411133 -276.549286 -21.919434 10111208.000000 1.000000 1.000000 -726349.750000 4.000000 1.000000 
644.588318 -937.874207 -107.051758 8323283.000000 7.000000 7.000000 -726589.500000 0.000000 1.000000 
-3037.980957 -273.406097 39.639038 7573067.000000 1.000000 1.000000 -726710.562500 1.000000 0.000000 
529.494080 -891.213745 -108.625000 355855.000000 7.000000 3.000000 -727549.500000 0.000000 1.000000 
-416.515167 -691.549011 -106.988403 9891654.000000 7.000000 7.000000 -726376.375000 0.000000 1.000000 
-4816.513184 -642.483032 -12.711182 6797322.000000 4.000000 1.000000 -726825.937500 0.000000 1.000000 
-2103.400391 -815.291626 -108.020996 7564742.000000 7.000000 4.000000 -726712.250000 0.000000 1.000000 
-9.542031 -1242.277344 -17.695557 1540228.000000 7.000000 6.000000 -727271.625000 0.000000 1.000000 
-3604.441895 -992.231445 -107.617798 8742388.000000 7.000000 6.000000 -726525.312500 0.000000 1.000000 
5502.106445 -835.687012 -9.498901 7129440.000000 7.000000 6.000000 -726787.250000 0.000000 0.000000 
5540.447266 -930.434937 -9.946655 4343820.000000 5.000000 5.000000 -726986.562500 0.000000 0.000000 
5716.013672 -1076.311523 -12.191650 3388930.000000 3.000000 1.000000 -727048.062500 0.000000 0.000000 
-4116.612305 -1172.360107 -15.759155 5232590.000000 1.000000 1.000000 -726941.437500 0.000000 1.000000 
-4279.267578 -479.636444 -74.486450 7578727.000000 5.000000 3.000000 -726709.437500 0.000000 1.000000 
4721.522461 -278.176727 88.535522 3381479.000000 1.000000 1.000000 -727049.250000 0.000000 0.000000 
3102.268555 -695.070923 100.760864 3774276.000000 2.000000 2.000000 -727021.375000 0.000000 0.000000 
5705.405273 -798.484497 -9.745728 3585349.000000 5.000000 3.000000 -727034.937500 0.000000 0.000000 
-5562.332520 -276.983978 44.205933 5043710.000000 3.000000 1.000000 -726947.875000 0.000000 0.000000 
-2125.332520 -1279.948486 -18.994141 2327017.000000 6.000000 6.000000 -727130.937500 0.000000 1.000000 
-2430.847168 -608.926147 -15.149780 2132020.000000 7.000000 6.000000 -727157.500000 0.000000 1.000000 
-5513.856445 -273.663910 39.356445 7780207.000000 1.000000 1.000000 -726676.000000 0.000000 0.000000 
-3473.248779 -1041.460205 -12.390259 4456848.000000 1.000000 1.000000 -726978.437500 0.000000 1.000000 
400.269012 -273.618622 15.314087 8127045.000000 1.000000 1.000000 -726620.375000 3.000000 0.000000 
5508.459961 -351.381683 -15.998291 3582635.000000 5.000000 4.000000 -727035.500000 0.000000 1.000000 
-2143.523926 -322.439545 -16.591064 1540363.000000 7.000000 7.000000 -727271.625000 0.000000 1.000000 
-4123.599121 -1239.815430 -17.289673 5816145.000000 2.000000 1.000000 -726905.562500 0.000000 1.000000 
-2428.991699 -935.948120 -106.990112 10879090.000000 7.000000 7.000000 -726271.250000 0.000000 1.000000 
1225.569336 -404.263763 -16.040039 954274.000000 7.000000 2.000000 -727419.937500 0.000000 1.000000 
-3038.911865 -273.955658 83.463989 7962318.000000 1.000000 1.000000 -726644.875000 2.000000 0.000000 
