ply
format ascii 1.0
comment Created by CloudCompare v2.12 alpha
comment Created 6/8/2021 9:15 PM
obj_info Generated by CloudCompare!
element vertex 501
property double x
property double y
property double z
property float scalar_fullwaveIndex
property float scalar_NumberOfReturns
property float scalar_ReturnNumber
property float scalar_GpsTime
property float scalar_Intensity
end_header
-538.113809 -729.177104 -107.814453 7150204.000000 7.000000 5.000000 -1047308.500000 0.000000 
-262.955605 -540.757061 -108.275024 8632736.000000 7.000000 4.000000 -1047101.625000 0.000000 
-2500.296914 -977.627178 -107.735229 10138226.000000 7.000000 6.000000 -1046932.312500 0.000000 
-2879.269570 -276.582378 -17.986450 5404193.000000 1.000000 1.000000 -1047583.625000 1.000000 
1146.721641 -1228.717205 -108.538818 6841786.000000 7.000000 3.000000 -1047358.375000 0.000000 
-698.066934 -371.856548 -55.879761 8039624.000000 4.000000 2.000000 -1047179.375000 0.000000 
-3612.412393 -374.982402 -16.658203 1901423.000000 7.000000 5.000000 -1047856.812500 0.000000 
1188.908164 -1205.813793 -107.079956 6841366.000000 7.000000 7.000000 -1047358.437500 0.000000 
-1842.210977 -808.525493 -9.667236 2682600.000000 4.000000 2.000000 -1047829.125000 0.000000 
-2227.776406 -333.664409 -50.115479 10728326.000000 7.000000 2.000000 -1046882.250000 0.000000 
-377.527871 -1330.908885 -16.648071 917256.000000 7.000000 3.000000 -1047895.562500 0.000000 
-4554.389199 -857.272014 -7.682983 3859691.000000 7.000000 2.000000 -1047761.000000 0.000000 
2276.640586 -431.320537 -65.591309 6829886.000000 7.000000 7.000000 -1047360.625000 0.000000 
-4451.445352 -758.030803 -108.233643 8379403.000000 7.000000 3.000000 -1047129.875000 0.000000 
1889.440391 -976.486614 -107.698975 7431607.000000 7.000000 6.000000 -1047267.375000 0.000000 
-4105.833535 -1012.067729 -107.211792 9558554.000000 7.000000 7.000000 -1046990.125000 0.000000 
-1824.244180 -1183.186412 -108.232056 6277584.000000 7.000000 3.000000 -1047445.562500 0.000000 
-4102.684365 -1253.523693 -16.136963 2290445.000000 7.000000 1.000000 -1047844.812500 0.000000 
-4489.490518 -1114.186626 -14.261841 4835904.000000 6.000000 4.000000 -1047665.562500 0.000000 
1806.804648 -560.772319 -15.943481 4990608.000000 1.000000 1.000000 -1047648.250000 0.000000 
-5308.626504 -1040.484294 -108.020752 7498805.000000 7.000000 4.000000 -1047253.250000 0.000000 
-1054.186563 -482.911235 -74.687744 7450503.000000 3.000000 3.000000 -1047263.562500 0.000000 
-4064.442422 -669.350627 -108.678345 9261053.000000 6.000000 1.000000 -1047023.812500 0.000000 
-1632.924844 -663.197673 -12.267944 2487744.000000 3.000000 1.000000 -1047837.187500 0.000000 
-4260.217080 -487.978252 -80.238281 7195073.000000 1.000000 1.000000 -1047298.187500 2.000000 
3944.490195 -276.703960 -36.779053 4385800.000000 6.000000 4.000000 -1047713.437500 0.000000 
-4494.801309 -278.065044 11.865112 6605743.000000 2.000000 2.000000 -1047391.812500 0.000000 
-1260.931191 -319.484111 -46.795288 9232915.000000 6.000000 3.000000 -1047029.000000 0.000000 
-1502.192910 -1371.674602 -16.311890 2483466.000000 3.000000 2.000000 -1047838.437500 0.000000 
-4566.230996 -740.691021 -107.082153 5711076.000000 7.000000 7.000000 -1047534.875000 0.000000 
3101.960898 -713.653728 127.210693 4786550.000000 6.000000 3.000000 -1047671.625000 0.000000 
-4176.271523 -783.561809 -108.393066 8375973.000000 7.000000 2.000000 -1047130.625000 0.000000 
1901.228477 -898.350505 -107.119263 10119889.000000 7.000000 7.000000 -1046935.125000 0.000000 
-352.868691 -640.108379 -108.010010 8633926.000000 7.000000 5.000000 -1047101.375000 0.000000 
5725.175742 -760.299419 -9.610229 4973765.000000 7.000000 1.000000 -1047651.312500 0.000000 
-2981.492227 -273.122661 40.135010 8064540.000000 1.000000 1.000000 -1047174.375000 4.000000 
1230.598594 -276.488018 -22.122192 8026886.000000 4.000000 3.000000 -1047181.875000 0.000000 
-2004.388223 -749.954814 -107.646240 6280313.000000 7.000000 6.000000 -1047445.000000 0.000000 
4105.941367 -896.957317 -109.071411 5630857.000000 7.000000 2.000000 -1047551.812500 0.000000 
-2630.618691 -775.371807 -9.666626 1703716.000000 7.000000 2.000000 -1047863.937500 0.000000 
2730.090781 -1178.543285 -15.775635 4987017.000000 3.000000 2.000000 -1047648.812500 0.000000 
-3046.908486 -790.346416 -107.295410 7770893.000000 7.000000 7.000000 -1047216.187500 0.000000 
-355.531289 -1150.801586 -14.611816 918176.000000 7.000000 3.000000 -1047895.125000 0.000000 
1698.684531 -467.327251 -72.797241 9221018.000000 7.000000 5.000000 -1047030.875000 0.000000 
-4697.469521 -1210.970592 -108.020142 10751005.000000 7.000000 4.000000 -1046878.312500 0.000000 
-3196.877480 -979.575603 -107.552368 9846185.000000 7.000000 6.000000 -1046960.625000 0.000000 
2918.596641 -275.721538 -26.220703 10114849.000000 6.000000 2.000000 -1046935.687500 0.000000 
-1532.937051 -784.290813 -107.837769 6569973.000000 7.000000 5.000000 -1047399.437500 0.000000 
-1577.166543 -1222.083599 -17.549561 5090120.000000 7.000000 7.000000 -1047635.375000 0.000000 
-4131.406045 -1166.973094 -108.231201 8079244.000000 7.000000 3.000000 -1047170.500000 0.000000 
-3882.674844 -1049.506877 -107.815552 9260144.000000 7.000000 5.000000 -1047024.000000 0.000000 
-541.657754 -307.923931 -44.635864 7444203.000000 2.000000 2.000000 -1047264.875000 0.000000 
-3382.298379 -690.610088 -108.393555 7184083.000000 7.000000 2.000000 -1047300.812500 0.000000 
-1494.364297 -1369.423412 -16.736938 2092419.000000 4.000000 4.000000 -1047851.937500 0.000000 
-4043.794961 -1197.879314 -107.734375 5704916.000000 7.000000 6.000000 -1047536.062500 0.000000 
-1049.762734 -954.067791 -10.263428 3459544.000000 1.000000 1.000000 -1047788.000000 0.000000 
-2057.511270 -666.332195 -107.294678 5985543.000000 7.000000 7.000000 -1047491.187500 0.000000 
-5445.482461 -559.625957 -108.938721 6313216.000000 7.000000 2.000000 -1047438.625000 0.000000 
-3060.141396 -757.721904 -107.645752 8066573.000000 7.000000 6.000000 -1047174.000000 0.000000 
-1047.166055 -726.785503 -108.392456 5381863.000000 6.000000 2.000000 -1047588.250000 0.000000 
1587.826133 -1456.574092 -14.996460 133829.000000 5.000000 4.000000 -1047932.125000 0.000000 
4622.438437 -1115.401226 -107.281128 6226838.000000 7.000000 7.000000 -1047456.437500 0.000000 
-51.996133 -327.541973 -48.359009 8928206.000000 7.000000 6.000000 -1047065.937500 0.000000 
-2971.160195 -557.673076 -108.422241 5699874.000000 7.000000 2.000000 -1047537.062500 0.000000 
-3447.042275 -1429.098201 -14.053711 4440581.000000 4.000000 1.000000 -1047708.687500 0.000000 
-2521.932168 -1396.304607 -16.515259 1112523.000000 7.000000 6.000000 -1047886.937500 0.000000 
-2262.751016 -690.609905 -107.600586 8649254.000000 7.000000 6.000000 -1047098.625000 0.000000 
1600.234336 -274.178691 42.060669 10117438.000000 5.000000 5.000000 -1046935.500000 0.000000 
-5202.358193 -312.195415 -45.718140 6313425.000000 5.000000 2.000000 -1047438.625000 0.000000 
3239.539023 -424.224834 -63.689453 9516279.000000 7.000000 7.000000 -1046997.750000 0.000000 
243.623496 -466.244121 -71.231445 7735895.000000 4.000000 4.000000 -1047224.250000 0.000000 
-3908.123330 -1193.780895 -107.193115 8076724.000000 7.000000 7.000000 -1047171.437500 0.000000 
-817.520547 -801.862896 -9.317139 133871.000000 7.000000 3.000000 -1047932.125000 0.000000 
-1362.349648 -564.195415 -108.008667 9533006.000000 7.000000 5.000000 -1046994.875000 0.000000 
-5404.743203 -774.254680 -9.334351 1113992.000000 7.000000 3.000000 -1047886.250000 0.000000 
-2015.810098 -339.391460 -14.851685 1313314.000000 7.000000 2.000000 -1047877.437500 0.000000 
27.078086 -426.936260 -65.259644 5958592.000000 2.000000 1.000000 -1047497.500000 0.000000 
-1977.832070 -304.467144 -44.829346 8644143.000000 2.000000 1.000000 -1047099.625000 0.000000 
168.626426 -493.943584 -98.691040 9226617.000000 2.000000 2.000000 -1047030.062500 0.000000 
-2873.176309 -522.745586 -107.277344 8654923.000000 7.000000 7.000000 -1047097.562500 0.000000 
67.023887 -451.641460 -70.645020 8630286.000000 7.000000 1.000000 -1047102.062500 0.000000 
4636.014609 -681.261394 -109.229126 5328737.000000 7.000000 1.000000 -1047599.750000 0.000000 
-2767.483438 -1331.436992 -16.620361 2289343.000000 7.000000 3.000000 -1047845.125000 0.000000 
-3301.134316 -438.390239 -67.054321 10735325.000000 5.000000 4.000000 -1046881.187500 0.000000 
4461.396445 -602.518657 -14.823242 4582493.000000 2.000000 1.000000 -1047694.437500 0.000000 
-4282.862100 -1100.046001 -14.690186 1113257.000000 7.000000 6.000000 -1047886.562500 0.000000 
-3960.696084 -489.671733 -85.655518 6302784.000000 1.000000 1.000000 -1047440.500000 1.000000 
-3883.865518 -1027.183208 -108.837158 6299005.000000 7.000000 1.000000 -1047441.250000 0.000000 
-2224.737832 -1158.158397 -107.195190 7465904.000000 7.000000 7.000000 -1047260.125000 0.000000 
194.421836 -583.851421 -107.837280 5957193.000000 7.000000 5.000000 -1047497.875000 0.000000 
-1814.131875 -467.720439 -19.596558 723731.000000 7.000000 7.000000 -1047903.437500 0.000000 
-2490.238320 -484.350933 -75.197876 7763332.000000 1.000000 1.000000 -1047217.562500 0.000000 
5249.458945 -1407.510707 -15.782593 4977537.000000 7.000000 5.000000 -1047650.437500 0.000000 
-3667.241982 -1153.835796 -107.786743 6296485.000000 7.000000 5.000000 -1047441.750000 0.000000 
1474.944297 -983.413127 -107.786865 5946275.000000 7.000000 5.000000 -1047500.625000 0.000000 
-3964.917520 -738.065227 -107.555176 6004305.000000 7.000000 6.000000 -1047487.500000 0.000000 
-3288.495400 -533.512065 -16.669556 3076772.000000 7.000000 5.000000 -1047808.375000 0.000000 
-5444.996255 -589.672954 -107.599854 7799244.000000 7.000000 6.000000 -1047209.437500 0.000000 
-3890.640176 -469.395610 -72.551880 9849963.000000 4.000000 3.000000 -1046959.875000 0.000000 
-3802.261270 -313.562969 -44.948242 10738124.000000 5.000000 5.000000 -1046880.750000 0.000000 
-4611.945596 -817.478618 -10.027954 3272592.000000 7.000000 6.000000 -1047797.312500 0.000000 
-2051.008340 -584.243267 -16.533569 1312256.000000 7.000000 7.000000 -1047877.750000 0.000000 
3350.077109 -329.062847 -15.534058 539097.000000 1.000000 1.000000 -1047909.750000 0.000000 
762.422324 -1421.416393 -14.210571 525383.000000 4.000000 1.000000 -1047912.187500 0.000000 
-2882.173379 -885.806316 -166.887390 5697215.000000 7.000000 7.000000 -1047537.500000 0.000000 
-4878.208291 -1187.953289 -16.193848 4445777.000000 7.000000 5.000000 -1047707.562500 0.000000 
-1124.304727 -769.184124 -108.027344 5678313.000000 7.000000 4.000000 -1047541.625000 0.000000 
-3019.309365 -309.413677 -45.708740 5701903.000000 2.000000 1.000000 -1047536.687500 0.000000 
1104.855430 -396.238628 -60.060547 7134455.000000 5.000000 3.000000 -1047312.437500 0.000000 
-1521.479043 -317.471904 -46.347900 5979521.000000 1.000000 1.000000 -1047492.562500 0.000000 
-5385.554727 -805.806072 -108.751953 8093944.000000 7.000000 1.000000 -1047167.062500 0.000000 
3317.723594 -524.603862 -108.310181 6527207.000000 7.000000 4.000000 -1047409.562500 0.000000 
4567.544883 -339.522197 -50.640869 5923877.000000 7.000000 5.000000 -1047504.937500 0.000000 
3918.556602 -712.002727 -12.859619 4979472.000000 2.000000 2.000000 -1047650.125000 0.000000 
2052.267539 -342.352520 -49.709717 8023877.000000 7.000000 7.000000 -1047182.375000 0.000000 
2178.972617 -1071.313518 -106.466675 9820919.000000 7.000000 7.000000 -1046964.750000 0.000000 
437.507773 -698.160808 -108.836792 7141315.000000 7.000000 1.000000 -1047310.937500 0.000000 
2962.788047 -1218.170604 -108.275024 5341616.000000 7.000000 4.000000 -1047597.562500 0.000000 
487.653770 -276.896343 -25.740356 8626996.000000 4.000000 4.000000 -1047102.625000 0.000000 
-63.374551 -993.640300 -9.778442 133918.000000 7.000000 1.000000 -1047932.125000 0.000000 
-2595.629922 -381.372417 -16.905884 2881273.000000 5.000000 4.000000 -1047818.312500 0.000000 
105.413047 -274.240947 38.087158 6252521.000000 1.000000 1.000000 -1047451.437500 1.000000 
-5504.464761 -474.655864 -18.332031 2686182.000000 7.000000 5.000000 -1047827.125000 0.000000 
-5053.109048 -283.916973 -40.555298 8683621.000000 1.000000 1.000000 -1047091.500000 0.000000 
-5171.848550 -309.418315 -44.786011 8094152.000000 1.000000 1.000000 -1047167.000000 0.000000 
850.384727 -1037.126506 -107.209351 5359534.000000 7.000000 7.000000 -1047593.312500 0.000000 
-1209.521523 -777.439495 -108.273438 9235646.000000 7.000000 4.000000 -1047028.562500 0.000000 
-5476.624795 -667.434307 -107.281860 10460713.000000 7.000000 7.000000 -1046901.187500 0.000000 
3203.941367 -688.803325 -107.390869 6528747.000000 7.000000 7.000000 -1047409.187500 0.000000 
-1503.656777 -711.962017 -107.297974 5683073.000000 7.000000 7.000000 -1047540.562500 0.000000 
4585.326133 -471.318706 -71.840332 8316689.000000 7.000000 7.000000 -1047141.187500 0.000000 
778.022422 -351.083965 -52.905151 6245663.000000 3.000000 1.000000 -1047452.937500 0.000000 
-4175.126748 -863.152385 -108.752808 7192344.000000 7.000000 1.000000 -1047298.812500 0.000000 
1110.550742 -1310.972087 -16.388916 133920.000000 7.000000 1.000000 -1047932.125000 0.000000 
1735.931602 -411.018901 -61.796753 5940604.000000 4.000000 4.000000 -1047502.000000 0.000000 
-3537.933877 -365.549541 -16.961304 4250740.000000 5.000000 5.000000 -1047726.625000 0.000000 
-5184.958413 -691.367412 -108.026489 8684113.000000 7.000000 4.000000 -1047091.375000 0.000000 
-4067.595498 -550.355205 -107.814575 6600074.000000 7.000000 5.000000 -1047392.875000 0.000000 
-4713.277871 -435.507549 -19.172852 2097382.000000 7.000000 7.000000 -1047850.375000 0.000000 
-3409.294961 -604.271465 -108.255127 5406435.000000 7.000000 3.000000 -1047583.250000 0.000000 
3950.632773 -1051.985210 -106.744751 6826318.000000 7.000000 7.000000 -1047361.062500 0.000000 
-2579.742227 -417.732158 -15.962524 2097569.000000 7.000000 1.000000 -1047850.312500 0.000000 
2580.762656 -457.080669 -70.923096 6530356.000000 7.000000 3.000000 -1047409.000000 0.000000 
-3299.460977 -864.851177 -8.113159 2683609.000000 7.000000 4.000000 -1047828.687500 0.000000 
-3169.657510 -1080.947185 -107.598511 6884694.000000 7.000000 6.000000 -1047348.875000 0.000000 
-1456.312051 -1190.068615 -108.004150 6569414.000000 7.000000 4.000000 -1047399.562500 0.000000 
-728.408242 -1211.261302 -107.075073 7450925.000000 7.000000 7.000000 -1047263.500000 0.000000 
-5372.849771 -309.002056 -14.976563 1115326.000000 7.000000 5.000000 -1047885.812500 0.000000 
487.321250 -508.909038 -108.010620 8032346.000000 7.000000 5.000000 -1047181.000000 0.000000 
-3848.824502 -567.643657 -107.600342 10146484.000000 7.000000 6.000000 -1046930.937500 0.000000 
-2508.919961 -620.849346 -108.007324 5398524.000000 7.000000 4.000000 -1047584.500000 0.000000 
-1040.342324 -591.424663 -106.940918 10127797.000000 7.000000 7.000000 -1046933.937500 0.000000 
3929.294883 -663.693279 -109.229980 5928567.000000 7.000000 1.000000 -1047504.250000 0.000000 
-1546.930215 -744.615825 -11.870972 5091729.000000 7.000000 7.000000 -1047635.000000 0.000000 
-1219.648477 -1345.856304 -16.067017 1505044.000000 7.000000 2.000000 -1047872.125000 0.000000 
-4848.607705 -391.180156 -59.088135 8089882.000000 1.000000 1.000000 -1047168.000000 0.000000 
124.329551 -1272.123088 -17.338135 329282.000000 7.000000 2.000000 -1047921.062500 0.000000 
-2726.968301 -697.819805 -107.630859 8062373.000000 6.000000 5.000000 -1047174.750000 0.000000 
3124.630820 -277.395610 -40.686646 8318998.000000 7.000000 2.000000 -1047141.000000 0.000000 
-1339.062051 -904.431987 -107.734253 9237256.000000 7.000000 6.000000 -1047028.312500 0.000000 
-457.095742 -437.820659 -18.182739 725205.000000 7.000000 6.000000 -1047902.875000 0.000000 
2729.068320 -625.021343 -109.534058 9518309.000000 7.000000 2.000000 -1046997.187500 0.000000 
-1738.029824 -533.944316 -15.696167 1116342.000000 7.000000 2.000000 -1047885.375000 0.000000 
-1393.969277 -1204.177501 -107.585815 6272754.000000 7.000000 6.000000 -1047446.625000 0.000000 
-1657.765176 -653.282207 -107.787109 8940525.000000 7.000000 5.000000 -1047063.812500 0.000000 
-1524.514199 -739.971477 -108.620483 10429287.000000 7.000000 3.000000 -1046907.000000 0.000000 
-4459.460977 -1389.898815 -15.803711 3270062.000000 7.000000 4.000000 -1047798.187500 0.000000 
-2018.076699 -852.344524 -7.806763 2095408.000000 7.000000 2.000000 -1047851.000000 0.000000 
1390.752891 -1227.638500 -107.786743 5651365.000000 7.000000 5.000000 -1047547.625000 0.000000 
-824.683633 -378.547954 -56.721191 6855572.000000 2.000000 2.000000 -1047355.125000 0.000000 
3009.753867 -928.989482 -107.698975 6531127.000000 7.000000 6.000000 -1047408.875000 0.000000 
-1307.616250 -477.629253 -73.331177 8342444.000000 3.000000 3.000000 -1047137.187500 0.000000 
-1428.697793 -574.448345 -15.803345 527173.000000 7.000000 5.000000 -1047911.625000 0.000000 
-3205.395059 -364.877788 -16.013794 3859510.000000 4.000000 2.000000 -1047761.062500 0.000000 
895.485801 -509.763286 -16.405640 333975.000000 7.000000 2.000000 -1047919.625000 0.000000 
979.584434 -474.917095 -72.173950 9821058.000000 7.000000 7.000000 -1046964.750000 0.000000 
-4577.446816 -846.567485 -108.420654 7492854.000000 7.000000 2.000000 -1047254.437500 0.000000 
-1885.007852 -472.801860 -73.171143 5984002.000000 1.000000 1.000000 -1047491.500000 0.000000 
276.628379 -908.510112 -9.141602 2093988.000000 1.000000 1.000000 -1047851.500000 0.000000 
-1194.051797 -1086.577678 -108.539917 8939756.000000 7.000000 3.000000 -1047063.937500 0.000000 
-87.564492 -555.615337 -108.026611 6256163.000000 7.000000 4.000000 -1047450.500000 0.000000 
-209.354043 -1119.868999 -108.836182 7149085.000000 7.000000 1.000000 -1047308.750000 0.000000 
4078.587852 -501.961040 -17.334351 4780753.000000 1.000000 1.000000 -1047672.562500 0.000000 
20.576133 -459.723125 -72.200684 9525517.000000 7.000000 1.000000 -1046996.125000 0.000000 
1111.099570 -1302.071086 -17.253052 133966.000000 7.000000 3.000000 -1047932.125000 0.000000 
-3370.853799 -312.194927 -44.709961 5408114.000000 5.000000 5.000000 -1047582.937500 0.000000 
1661.161094 -442.015117 -67.163330 5941444.000000 4.000000 4.000000 -1047501.812500 0.000000 
-4614.836953 -916.348674 -7.707886 2684205.000000 7.000000 1.000000 -1047828.312500 0.000000 
-66.007363 -719.813274 -107.469849 8334886.000000 7.000000 7.000000 -1047138.562500 0.000000 
3102.511680 -472.634258 -73.464355 5336085.000000 5.000000 2.000000 -1047598.437500 0.000000 
-4927.826943 -468.203716 -18.406860 3470254.000000 7.000000 5.000000 -1047785.687500 0.000000 
4196.514609 -365.740093 -16.188965 4582356.000000 1.000000 1.000000 -1047694.500000 0.000000 
-5233.011270 -786.212810 -108.025269 9275683.000000 6.000000 4.000000 -1047020.562500 0.000000 
-616.131387 -1246.267406 -17.568481 3066934.000000 1.000000 1.000000 -1047810.437500 0.000000 
-1213.382852 -289.057964 -41.378540 8043613.000000 2.000000 2.000000 -1047178.625000 0.000000 
-5140.053872 -273.112163 40.221558 9864520.000000 1.000000 1.000000 -1046956.562500 4.000000 
781.067832 -385.838115 -57.476440 10120098.000000 7.000000 7.000000 -1046935.125000 0.000000 
5105.672812 -371.352520 -16.451416 3986381.000000 1.000000 1.000000 -1047750.000000 0.000000 
-1392.320352 -627.370708 -108.695435 7159093.000000 7.000000 1.000000 -1047306.312500 0.000000 
-3058.901650 -680.914775 -108.679443 6884553.000000 6.000000 1.000000 -1047348.875000 0.000000 
-4582.157510 -1321.703014 -19.133545 1308941.000000 7.000000 7.000000 -1047878.937500 0.000000 
337.404258 -773.510723 -108.836548 7142575.000000 7.000000 1.000000 -1047310.625000 0.000000 
250.843711 -1267.160015 -18.127441 1896141.000000 1.000000 1.000000 -1047858.500000 0.000000 
869.893027 -1417.004497 -15.460815 1894211.000000 1.000000 1.000000 -1047858.812500 0.000000 
-2351.651895 -594.773052 -107.279053 8057543.000000 7.000000 7.000000 -1047175.812500 0.000000 
-4859.222451 -492.989971 -96.330322 10452803.000000 1.000000 1.000000 -1046902.937500 2.000000 
-1836.151895 -887.847515 -8.666504 4241359.000000 1.000000 1.000000 -1047728.500000 0.000000 
-812.107461 -767.089092 -10.564453 134009.000000 7.000000 4.000000 -1047932.125000 0.000000 
-4772.134072 -995.376873 -9.800415 3467908.000000 7.000000 1.000000 -1047786.312500 0.000000 
-2062.732461 -921.732280 -9.332886 3852980.000000 1.000000 1.000000 -1047762.625000 0.000000 
-3991.002236 -308.674175 -15.195923 3665710.000000 7.000000 5.000000 -1047773.687500 0.000000 
-2281.344277 -997.868328 -108.753662 8058244.000000 7.000000 1.000000 -1047175.625000 0.000000 
2901.445273 -407.132061 -61.160156 8320328.000000 7.000000 7.000000 -1047140.875000 0.000000 
-3714.903359 -314.454204 -45.828613 7779991.000000 1.000000 1.000000 -1047213.937500 0.000000 
674.253867 -655.044902 -108.390625 5360303.000000 7.000000 2.000000 -1047593.125000 0.000000 
-3358.581826 -1100.866802 -107.209839 8662414.000000 7.000000 7.000000 -1047096.125000 0.000000 
5012.834922 -436.410381 -66.059937 8016389.000000 7.000000 7.000000 -1047183.187500 0.000000 
-147.185098 -681.010601 -108.394043 5961603.000000 6.000000 2.000000 -1047496.812500 0.000000 
3021.221641 -564.248638 -15.927612 4786321.000000 1.000000 1.000000 -1047671.687500 0.000000 
-433.103555 -1205.683300 -16.588135 2482687.000000 1.000000 1.000000 -1047838.562500 0.000000 
804.596152 -877.965312 -109.262817 9525028.000000 7.000000 2.000000 -1046996.187500 0.000000 
-678.855020 -359.254497 -53.490356 7445883.000000 3.000000 3.000000 -1047264.500000 0.000000 
-4085.695352 -466.792217 -72.133911 7784542.000000 1.000000 1.000000 -1047212.875000 0.000000 
-5063.261758 -838.379680 -9.448853 4447617.000000 7.000000 6.000000 -1047707.250000 0.000000 
-2266.056191 -706.800823 -11.227661 526022.000000 7.000000 2.000000 -1047912.000000 0.000000 
-3275.362832 -1219.742198 -108.018188 9551205.000000 7.000000 4.000000 -1046991.750000 0.000000 
98.687949 -275.283672 -6.206177 5957051.000000 1.000000 1.000000 -1047497.937500 0.000000 
5648.589805 -1422.171093 -15.299561 3792949.000000 2.000000 1.000000 -1047764.750000 0.000000 
3066.674766 -276.073711 -16.395630 6526716.000000 3.000000 1.000000 -1047409.625000 0.000000 
875.942832 -393.760356 -58.982056 8924567.000000 7.000000 7.000000 -1047066.500000 0.000000 
-3243.411416 -1457.713298 -14.682129 4049351.000000 5.000000 3.000000 -1047745.875000 0.000000 
4642.317344 -539.959453 -15.267090 4976021.000000 4.000000 1.000000 -1047650.687500 0.000000 
-4353.355996 -940.598979 -107.469727 5708486.000000 7.000000 7.000000 -1047535.375000 0.000000 
-332.923867 -965.597820 -108.539063 8338106.000000 7.000000 3.000000 -1047137.937500 0.000000 
4712.983359 -957.262310 -109.262451 6225648.000000 7.000000 2.000000 -1047456.562500 0.000000 
3021.954062 -862.519084 -108.275146 5636736.000000 7.000000 4.000000 -1047551.000000 0.000000 
3900.114219 -442.474102 -69.196899 7420758.000000 7.000000 2.000000 -1047268.937500 0.000000 
-1552.836953 -1310.403301 -17.034912 524229.000000 7.000000 3.000000 -1047912.625000 0.000000 
-2901.658242 -678.005107 -106.965210 10734346.000000 7.000000 7.000000 -1046881.312500 0.000000 
2755.165977 -888.015178 -8.614136 532518.000000 1.000000 1.000000 -1047910.312500 0.000000 
-1188.890664 -274.279033 82.519165 9828125.000000 4.000000 2.000000 -1046963.625000 0.000000 
-653.930703 -468.499126 -73.185913 7149993.000000 4.000000 1.000000 -1047308.562500 0.000000 
-1866.822305 -273.355449 42.452148 7164060.000000 1.000000 1.000000 -1047305.187500 1.000000 
-2227.716836 -806.160381 -108.836304 9243135.000000 7.000000 1.000000 -1047027.250000 0.000000 
-2800.223672 -369.286357 -55.409790 10433905.000000 6.000000 3.000000 -1046906.312500 0.000000 
-2233.830117 -370.810649 -55.570801 8055162.000000 2.000000 1.000000 -1047176.312500 0.000000 
-3092.394082 -596.256694 -108.676392 8657793.000000 7.000000 1.000000 -1047097.062500 0.000000 
1035.470664 -488.492046 -81.866455 5651293.000000 1.000000 1.000000 -1047547.625000 2.000000 
-902.160195 -624.510356 -107.788940 8340065.000000 7.000000 5.000000 -1047137.625000 0.000000 
1925.593711 -1465.372493 -24.448608 526490.000000 7.000000 7.000000 -1047911.812500 0.000000 
-1201.476113 -856.428020 -8.587769 1507528.000000 7.000000 5.000000 -1047871.250000 0.000000 
-2504.919473 -623.892803 -107.817017 8947734.000000 7.000000 5.000000 -1047062.500000 0.000000 
2154.950156 -653.620830 -106.781128 7428387.000000 7.000000 7.000000 -1047267.937500 0.000000 
-3616.857461 -355.182476 -53.615479 6300403.000000 3.000000 1.000000 -1047440.937500 0.000000 
-1553.344277 -668.487224 -12.042847 2096283.000000 4.000000 1.000000 -1047850.750000 0.000000 
-1846.068398 -785.613628 -9.213989 2682738.000000 4.000000 1.000000 -1047829.062500 0.000000 
717.673789 -819.036907 -107.597290 5952504.000000 7.000000 6.000000 -1047499.062500 0.000000 
-1497.423379 -770.421001 -107.296875 5978473.000000 7.000000 7.000000 -1047492.812500 0.000000 
-4019.803750 -1194.867809 -107.584106 8669904.000000 7.000000 6.000000 -1047094.500000 0.000000 
-1613.808633 -777.845684 -9.408203 2487054.000000 3.000000 1.000000 -1047837.437500 0.000000 
-1037.224648 -607.731792 -107.817139 7747374.000000 7.000000 5.000000 -1047221.437500 0.000000 
3103.211875 -473.348491 -73.243042 5336085.000000 5.000000 3.000000 -1047598.437500 0.000000 
-3999.678506 -737.361003 -107.297852 8964813.000000 7.000000 7.000000 -1047059.125000 0.000000 
-4066.785439 -515.042949 -16.514893 3273375.000000 7.000000 3.000000 -1047797.062500 0.000000 
-3336.310098 -488.191753 -81.037354 8364982.000000 1.000000 1.000000 -1047133.000000 4.000000 
1696.037070 -423.514263 -65.491699 5941024.000000 4.000000 1.000000 -1047501.937500 0.000000 
-1132.409707 -1247.024700 -17.475464 2483651.000000 2.000000 1.000000 -1047838.375000 0.000000 
-1939.653848 -786.391277 -108.013184 6870553.000000 7.000000 4.000000 -1047351.625000 0.000000 
-2027.609902 -393.644268 -16.753418 3466442.000000 1.000000 1.000000 -1047786.687500 0.000000 
-2746.090859 -324.374858 -47.692749 9244743.000000 3.000000 2.000000 -1047027.000000 0.000000 
1672.935508 -1104.406292 -107.471313 6539946.000000 7.000000 7.000000 -1047406.500000 0.000000 
-5367.364297 -1202.513286 -108.017212 9572904.000000 7.000000 4.000000 -1046987.000000 0.000000 
-1226.048867 -1221.101787 -18.099731 721110.000000 7.000000 7.000000 -1047904.437500 0.000000 
-5034.687295 -1143.759624 -107.209595 8681314.000000 7.000000 7.000000 -1047092.000000 0.000000 
-4109.926797 -1147.497417 -13.485474 2290859.000000 7.000000 1.000000 -1047844.687500 0.000000 
538.012168 -695.967327 -12.520874 2095599.000000 1.000000 1.000000 -1047850.937500 0.000000 
-432.730996 -1467.774807 44.896606 5008546.000000 2.000000 1.000000 -1047646.187500 0.000000 
-2792.068398 -926.965312 -108.422729 8655764.000000 7.000000 2.000000 -1047097.375000 0.000000 
-5137.550454 -1092.800823 -108.004150 10162164.000000 7.000000 4.000000 -1046927.687500 0.000000 
3210.161094 -427.013652 -66.770752 9516349.000000 7.000000 2.000000 -1046997.687500 0.000000 
-3140.768838 -274.935894 89.239502 3469153.000000 5.000000 2.000000 -1047785.937500 0.000000 
1341.977500 -332.213848 -49.197266 8623777.000000 7.000000 6.000000 -1047103.125000 0.000000 
544.959434 -1150.689189 -15.197144 1896786.000000 1.000000 1.000000 -1047858.312500 0.000000 
-2021.048867 -783.725994 -9.811890 1703763.000000 7.000000 3.000000 -1047863.937500 0.000000 
-5562.323770 -518.538555 -107.211792 7800784.000000 7.000000 7.000000 -1047209.062500 0.000000 
231.798301 -680.545696 -107.280151 5661373.000000 7.000000 7.000000 -1047545.375000 0.000000 
-4085.311563 -428.042949 -16.660034 3273789.000000 7.000000 2.000000 -1047796.937500 0.000000 
-5546.601113 -508.939312 -15.889160 4841193.000000 7.000000 1.000000 -1047664.562500 0.000000 
-1338.238320 -1178.487102 -108.234253 6568084.000000 7.000000 3.000000 -1047399.875000 0.000000 
-1922.322793 -1322.388408 -18.074463 2875156.000000 4.000000 4.000000 -1047820.125000 0.000000 
-4290.595254 -776.431316 -107.296143 8968453.000000 7.000000 7.000000 -1047058.375000 0.000000 
-5309.576943 -886.605999 -7.571533 3272959.000000 7.000000 2.000000 -1047797.187500 0.000000 
-2811.367715 -737.203411 -107.296997 6881403.000000 7.000000 7.000000 -1047349.375000 0.000000 
-2560.655801 -578.384868 -14.655640 2488708.000000 7.000000 2.000000 -1047836.812500 0.000000 
593.125449 -434.805034 -66.768677 6841294.000000 4.000000 2.000000 -1047358.437500 0.000000 
3384.474570 -758.525188 -109.764404 8919109.000000 7.000000 1.000000 -1047067.312500 0.000000 
1865.191367 -448.709453 -17.848877 532883.000000 2.000000 1.000000 -1047910.312500 0.000000 
2671.265586 -336.972759 -49.020874 8619578.000000 7.000000 7.000000 -1047103.625000 0.000000 
-2449.167520 -492.118633 -93.318237 9837295.000000 1.000000 1.000000 -1046962.125000 0.000000 
3140.772422 -698.618999 -12.487427 535371.000000 1.000000 1.000000 -1047910.000000 0.000000 
-3029.922646 -276.619487 -14.293823 5108519.000000 1.000000 1.000000 -1047631.687500 0.000000 
4583.500937 -508.675396 -17.308838 4186895.000000 1.000000 1.000000 -1047732.000000 0.000000 
-2049.350137 -454.828960 -70.824341 8349443.000000 3.000000 1.000000 -1047135.875000 0.000000 
3732.060508 -1322.358501 -17.295654 4392422.000000 1.000000 1.000000 -1047712.500000 0.000000 
-23.151406 -1077.774883 -13.499268 1310788.000000 3.000000 3.000000 -1047878.312500 0.000000 
-5541.094277 -307.221050 -44.471680 10165171.000000 1.000000 1.000000 -1046927.000000 0.000000 
-90.570352 -454.226543 -69.142456 8035635.000000 5.000000 5.000000 -1047180.312500 0.000000 
-4158.306680 -1223.310985 -17.214844 1701966.000000 7.000000 5.000000 -1047864.437500 0.000000 
-4321.147500 -611.792095 -108.422119 6898694.000000 7.000000 2.000000 -1047345.625000 0.000000 
5373.530234 -1342.138988 -17.011108 3399100.000000 1.000000 1.000000 -1047789.062500 0.000000 
402.040488 -968.629985 -107.280273 9825678.000000 7.000000 7.000000 -1046964.062500 0.000000 
2122.753867 -1463.636898 -14.677856 4795244.000000 1.000000 1.000000 -1047670.562500 0.000000 
-4852.518594 -581.858135 -107.646606 8089113.000000 7.000000 6.000000 -1047168.187500 0.000000 
-4231.832314 -491.587017 -91.991333 8376952.000000 1.000000 1.000000 -1047130.375000 4.000000 
3612.823203 -467.476421 -72.574341 6525597.000000 7.000000 6.000000 -1047409.812500 0.000000 
42.025840 -959.501995 -108.003174 10125628.000000 7.000000 5.000000 -1046934.312500 0.000000 
-4552.031289 -554.198223 -108.250854 10746244.000000 7.000000 3.000000 -1046879.312500 0.000000 
-339.124063 -1000.462627 -107.280640 10425928.000000 7.000000 7.000000 -1046907.500000 0.000000 
-2592.942422 -738.915813 -108.393799 7765223.000000 7.000000 2.000000 -1047217.187500 0.000000 
-1198.910684 -467.803447 -72.313599 5384452.000000 1.000000 1.000000 -1047587.562500 0.000000 
-2093.729043 -276.063945 0.823242 4829102.000000 5.000000 1.000000 -1047666.937500 0.000000 
-2576.124551 -615.089092 -14.369629 2096649.000000 7.000000 4.000000 -1047850.625000 0.000000 
4143.426719 -711.197795 -108.004395 8318789.000000 7.000000 5.000000 -1047141.062500 0.000000 
-9.779824 -1075.877788 -109.230713 8932687.000000 7.000000 1.000000 -1047065.125000 0.000000 
-3337.967568 -1111.460002 -14.220093 3269650.000000 6.000000 4.000000 -1047798.312500 0.000000 
-933.491738 -392.701396 -60.427856 10424597.000000 7.000000 2.000000 -1046907.812500 0.000000 
2162.216758 -755.212871 -108.836914 5642265.000000 7.000000 1.000000 -1047549.937500 0.000000 
-2518.626016 -1062.598125 -107.814575 6285494.000000 7.000000 5.000000 -1047443.875000 0.000000 
-225.952676 -276.889507 -24.720825 9226966.000000 4.000000 4.000000 -1047030.000000 0.000000 
-4549.820840 -1395.575389 -16.501221 2682319.000000 7.000000 6.000000 -1047829.250000 0.000000 
-54.303262 -1162.647594 -16.392944 722170.000000 7.000000 7.000000 -1047904.000000 0.000000 
-1864.683145 -1141.593303 -108.620728 10433347.000000 7.000000 3.000000 -1046906.375000 0.000000 
-1482.972207 -900.315410 -8.343262 1703258.000000 7.000000 3.000000 -1047864.062500 0.000000 
-3109.922402 -331.541729 -15.291748 4249683.000000 3.000000 3.000000 -1047726.875000 0.000000 
2565.043906 -992.802288 -108.004150 9520479.000000 7.000000 5.000000 -1046996.875000 0.000000 
-3626.054482 -816.639690 -9.547729 4053445.000000 5.000000 3.000000 -1047744.937500 0.000000 
-364.871621 -594.455547 -15.253662 331719.000000 7.000000 5.000000 -1047920.250000 0.000000 
-3864.687539 -552.737041 -16.382690 1508030.000000 7.000000 5.000000 -1047871.062500 0.000000 
3758.130820 -335.798320 -50.181396 9215559.000000 7.000000 5.000000 -1047031.937500 0.000000 
-1123.652871 -738.043804 -107.298218 6564863.000000 7.000000 7.000000 -1047400.750000 0.000000 
-613.432168 -1251.347209 -17.702026 3066888.000000 1.000000 1.000000 -1047810.437500 0.000000 
-960.745156 -605.392803 -108.679443 6858163.000000 7.000000 1.000000 -1047354.562500 0.000000 
3454.592734 -1139.205608 -14.869385 4983244.000000 5.000000 3.000000 -1047649.437500 0.000000 
-640.371133 -278.512554 -15.697144 529198.000000 7.000000 7.000000 -1047911.000000 0.000000 
-3892.224648 -1066.871929 -12.852051 2683148.000000 7.000000 4.000000 -1047828.875000 0.000000 
3029.019492 -337.671611 -48.985229 5633235.000000 6.000000 6.000000 -1047551.500000 0.000000 
-3710.769082 -916.165081 -10.109863 4248485.000000 6.000000 6.000000 -1047727.187500 0.000000 
3288.062461 -581.474712 -106.780151 6527697.000000 7.000000 7.000000 -1047409.437500 0.000000 
-3702.428506 -930.734294 -10.479004 4248393.000000 6.000000 6.000000 -1047727.187500 0.000000 
3900.723594 -1151.780498 -106.779907 5633377.000000 7.000000 7.000000 -1047551.437500 0.000000 
-3333.911660 -624.683330 -13.747070 1704221.000000 7.000000 3.000000 -1047863.750000 0.000000 
55.762168 -630.171855 -14.582153 724930.000000 6.000000 5.000000 -1047903.000000 0.000000 
-2099.186074 -304.021099 -14.499756 2489997.000000 5.000000 2.000000 -1047836.312500 0.000000 
2644.855430 -349.235454 -51.640259 8619718.000000 7.000000 7.000000 -1047103.625000 0.000000 
-3645.831582 -1199.152507 -108.753052 8073784.000000 7.000000 1.000000 -1047172.187500 0.000000 
-3049.204629 -512.055278 -108.751831 9545394.000000 7.000000 1.000000 -1046992.812500 0.000000 
-2690.475137 -511.478252 -107.585083 5400904.000000 7.000000 6.000000 -1047584.125000 0.000000 
-363.109902 -276.757305 38.092773 8929465.000000 5.000000 5.000000 -1047065.750000 0.000000 
4706.116172 -1045.710186 -107.119751 7720779.000000 7.000000 7.000000 -1047226.687500 0.000000 
-1460.566445 -527.948955 -108.678223 7455263.000000 6.000000 1.000000 -1047262.500000 0.000000 
-2537.322305 -774.726299 -107.282715 6877973.000000 6.000000 6.000000 -1047350.000000 0.000000 
2188.744102 -617.142314 -108.010620 6533646.000000 7.000000 5.000000 -1047408.187500 0.000000 
-3686.155313 -914.830730 -108.769043 6890784.000000 7.000000 1.000000 -1047347.500000 0.000000 
-1225.393594 -1198.743389 -107.815796 6270864.000000 7.000000 5.000000 -1047447.062500 0.000000 
-708.973184 -739.938030 -11.443237 3265379.000000 1.000000 1.000000 -1047799.250000 0.000000 
1691.910117 -469.961040 -73.360840 10716709.000000 7.000000 5.000000 -1046884.062500 0.000000 
-4176.371133 -847.310771 -7.933350 3467771.000000 7.000000 2.000000 -1047786.312500 0.000000 
-3267.642617 -781.493022 -107.297729 8069163.000000 7.000000 7.000000 -1047173.375000 0.000000 
-3028.327188 -288.646099 -40.631348 10137524.000000 5.000000 5.000000 -1046932.437500 0.000000 
-1843.208047 -1202.912303 -107.830078 6573754.000000 7.000000 5.000000 -1047398.437500 0.000000 
316.255332 -1104.470806 -106.548218 9826728.000000 7.000000 7.000000 -1046963.875000 0.000000 
2849.345664 -1012.530315 -109.067261 5638766.000000 7.000000 1.000000 -1047550.750000 0.000000 
778.247520 -544.182476 -109.070190 8627417.000000 7.000000 2.000000 -1047102.562500 0.000000 
2384.922812 -369.211772 -56.409180 6828906.000000 7.000000 1.000000 -1047360.750000 0.000000 
-3054.565713 -503.132061 -108.768066 5700994.000000 7.000000 1.000000 -1047536.875000 0.000000 
-3426.848916 -682.872722 -107.643555 7184643.000000 6.000000 5.000000 -1047300.687500 0.000000 
-834.905801 -746.972576 -108.011353 6265753.000000 7.000000 4.000000 -1047448.250000 0.000000 
2090.815391 -412.075420 -62.381226 5640654.000000 5.000000 4.000000 -1047550.375000 0.000000 
2102.493125 -709.220500 -107.735840 6534766.000000 7.000000 6.000000 -1047407.875000 0.000000 
-2634.028359 -968.809612 -10.387573 1702888.000000 7.000000 4.000000 -1047864.187500 0.000000 
914.320273 -606.992778 -108.474609 6839825.000000 7.000000 2.000000 -1047358.750000 0.000000 
-1851.580117 -1149.806804 -108.753052 7165744.000000 7.000000 1.000000 -1047304.812500 0.000000 
-588.336953 -782.833721 -108.391235 5376123.000000 6.000000 2.000000 -1047589.500000 0.000000 
5476.617148 -901.831218 -108.371460 5625188.000000 7.000000 4.000000 -1047552.687500 0.000000 
-3947.560098 -749.779399 -107.788330 6004095.000000 7.000000 5.000000 -1047487.562500 0.000000 
559.281699 -1012.279216 -108.248291 5658714.000000 7.000000 3.000000 -1047545.937500 0.000000 
-195.763711 -305.261455 -15.427734 922546.000000 7.000000 6.000000 -1047893.500000 0.000000 
-1721.043984 -739.036174 -107.280273 5981273.000000 7.000000 7.000000 -1047492.187500 0.000000 
-1570.815469 -1053.320415 -12.684692 2485398.000000 3.000000 2.000000 -1047838.000000 0.000000 
-667.768105 -1438.458095 -13.783447 1112664.000000 7.000000 1.000000 -1047886.875000 0.000000 
-2470.661172 -357.944805 -54.169434 9539304.000000 4.000000 1.000000 -1046993.812500 0.000000 
-2742.059609 -951.923198 -10.537231 2682736.000000 7.000000 6.000000 -1047829.062500 0.000000 
-821.180703 -1161.877697 -107.583618 6266314.000000 7.000000 6.000000 -1047448.125000 0.000000 
-3680.483193 -333.246318 -49.219238 6301173.000000 3.000000 2.000000 -1047440.812500 0.000000 
-649.809609 -709.791729 -107.787476 8041445.000000 7.000000 5.000000 -1047179.062500 0.000000 
-1560.980508 -565.042461 -108.695557 7456593.000000 7.000000 1.000000 -1047262.187500 0.000000 
3340.945273 -1250.969493 -17.628418 335408.000000 1.000000 1.000000 -1047919.187500 0.000000 
-1463.862344 -841.077800 -7.358765 526115.000000 7.000000 1.000000 -1047911.937500 0.000000 
-5148.216714 -748.552898 -108.422119 7795464.000000 7.000000 2.000000 -1047210.250000 0.000000 
1278.175742 -1102.839580 -107.073975 5948585.000000 7.000000 7.000000 -1047500.062500 0.000000 
-4730.368936 -783.101482 -10.436279 4837974.000000 6.000000 4.000000 -1047665.125000 0.000000 
3104.352500 -562.681987 -15.885742 4589166.000000 1.000000 1.000000 -1047693.312500 0.000000 
773.737266 -946.481792 -10.078003 331629.000000 6.000000 4.000000 -1047920.312500 0.000000 
2829.390586 -521.483135 -108.003418 8022268.000000 7.000000 5.000000 -1047182.500000 0.000000 
1324.707969 -863.204998 -108.769165 5353864.000000 7.000000 1.000000 -1047594.687500 0.000000 
954.970176 -287.417827 -41.278320 5651082.000000 2.000000 1.000000 -1047547.687500 0.000000 
-5036.469521 -398.382549 -59.492432 6311745.000000 5.000000 5.000000 -1047438.875000 0.000000 
860.386191 -420.125591 -63.323853 8029686.000000 7.000000 7.000000 -1047181.437500 0.000000 
-1034.567910 -945.600688 -109.066895 8937866.000000 7.000000 1.000000 -1047064.312500 0.000000 
25.510703 -842.805095 -8.905640 2289764.000000 1.000000 1.000000 -1047845.000000 0.000000 
-4494.751260 -586.906963 -107.852173 9857313.000000 7.000000 5.000000 -1046958.250000 0.000000 
-3290.725381 -515.423809 -15.803589 3076864.000000 7.000000 1.000000 -1047808.312500 0.000000 
4897.331992 -1205.080608 -16.700806 4189331.000000 3.000000 3.000000 -1047731.625000 0.000000 
1274.867148 -1134.232891 -14.910156 723737.000000 2.000000 2.000000 -1047903.437500 0.000000 
325.854941 -301.372295 -42.619751 9523347.000000 7.000000 7.000000 -1046996.437500 0.000000 
-4120.095010 -1358.015697 -17.010132 4443064.000000 6.000000 5.000000 -1047708.187500 0.000000 
-3307.421182 -779.432720 -108.694092 8069653.000000 7.000000 1.000000 -1047173.250000 0.000000 
-4201.625527 -1040.567913 -107.209473 9559674.000000 7.000000 7.000000 -1046989.875000 0.000000 
-1721.726602 -450.596660 -18.696899 134238.000000 7.000000 6.000000 -1047932.062500 0.000000 
1975.168906 -746.275371 -107.119751 10118979.000000 7.000000 7.000000 -1046935.312500 0.000000 
-2681.835488 -621.855937 -14.294922 4830756.000000 1.000000 1.000000 -1047666.625000 0.000000 
2820.679648 -448.363140 -69.028809 9816509.000000 7.000000 7.000000 -1046965.312500 0.000000 
-5186.464028 -587.837749 -108.390137 8388783.000000 6.000000 2.000000 -1047127.875000 0.000000 
-2697.307656 -726.866924 -108.232910 8950184.000000 7.000000 3.000000 -1047062.062500 0.000000 
178.952109 -1344.065593 -16.836426 1700364.000000 1.000000 1.000000 -1047865.062500 0.000000 
-2767.289102 -888.842510 -9.208374 1310737.000000 7.000000 6.000000 -1047878.312500 0.000000 
2734.164023 -285.765728 -40.744263 5337484.000000 5.000000 4.000000 -1047598.187500 0.000000 
-4926.219277 -1037.515178 -108.248657 10159714.000000 7.000000 3.000000 -1046928.250000 0.000000 
1233.446250 -903.639629 -108.002319 5354984.000000 7.000000 4.000000 -1047594.437500 0.000000 
-1741.580117 -792.891216 -107.645386 6572563.000000 7.000000 6.000000 -1047398.687500 0.000000 
-1212.554727 -408.661602 -17.067505 5016369.000000 1.000000 1.000000 -1047645.062500 0.000000 
-2044.175820 -873.357219 -7.102295 2877916.000000 3.000000 1.000000 -1047819.500000 0.000000 
3159.492148 -1362.120494 -15.445801 4985452.000000 3.000000 1.000000 -1047649.062500 0.000000 
-4322.103311 -643.619487 -108.219360 9559743.000000 6.000000 3.000000 -1046989.875000 0.000000 
-4290.080361 -632.615093 -108.693359 9559323.000000 7.000000 1.000000 -1046990.000000 0.000000 
-2357.370645 -1251.103405 -17.023804 524044.000000 7.000000 3.000000 -1047912.687500 0.000000 
697.253379 -1464.218502 88.262573 4220615.000000 1.000000 1.000000 -1047729.937500 2.000000 
-2725.125527 -740.937480 -108.247437 8950534.000000 7.000000 3.000000 -1047062.000000 0.000000 
-419.855996 -876.236125 -8.095703 330477.000000 7.000000 4.000000 -1047920.687500 0.000000 
-3826.863564 -1195.827709 -108.003662 8075814.000000 7.000000 4.000000 -1047171.687500 0.000000 
-4102.653604 -340.802959 -16.779663 3274203.000000 7.000000 7.000000 -1047796.875000 0.000000 
-4199.568887 -856.843120 -107.830200 7192624.000000 7.000000 5.000000 -1047298.750000 0.000000 
-444.552773 -1185.164409 -15.934570 1897197.000000 2.000000 1.000000 -1047858.187500 0.000000 
-413.543008 -367.148418 -16.319092 5078939.000000 1.000000 1.000000 -1047638.062500 0.000000 
374.102500 -277.881450 -23.866455 10718668.000000 5.000000 5.000000 -1046883.750000 0.000000 
-2062.575234 -853.191570 -8.781860 1311106.000000 7.000000 5.000000 -1047878.187500 0.000000 
-3567.156533 -301.987651 -14.752808 4251154.000000 5.000000 2.000000 -1047726.500000 0.000000 
-4772.202920 -490.123638 -87.097778 10451823.000000 1.000000 1.000000 -1046903.125000 2.000000 
-4456.689980 -1020.312175 -11.345825 4640818.000000 6.000000 2.000000 -1047687.812500 0.000000 
-4870.571328 -1217.500011 -109.070068 5412037.000000 7.000000 2.000000 -1047582.250000 0.000000 
454.716758 -368.489482 -54.280884 10419908.000000 7.000000 7.000000 -1046908.500000 0.000000 
3341.580039 -1232.310985 -17.447510 4984118.000000 5.000000 4.000000 -1047649.312500 0.000000 
-1213.246133 -816.692119 -9.477661 2486457.000000 1.000000 1.000000 -1047837.687500 0.000000 
-2254.473672 -1067.465129 -11.792847 2290264.000000 7.000000 1.000000 -1047844.875000 0.000000 
-2139.033242 -951.410686 -108.423706 8056564.000000 7.000000 2.000000 -1047176.000000 0.000000 
608.574668 -697.044109 -107.209961 6249374.000000 7.000000 7.000000 -1047452.125000 0.000000 
-4352.592324 -532.554668 -108.681152 9855423.000000 7.000000 1.000000 -1046958.687500 0.000000 
3380.170859 -557.553081 -16.069458 340835.000000 1.000000 1.000000 -1047918.375000 0.000000 
-311.272988 -360.105937 -53.857056 7739324.000000 4.000000 2.000000 -1047223.375000 0.000000 
-2458.738809 -786.735088 -108.233154 8651704.000000 7.000000 3.000000 -1047098.187500 0.000000 
-1845.398965 -1033.424419 -107.553101 8647225.000000 7.000000 6.000000 -1047099.000000 0.000000 
-3561.843789 -278.073955 -14.000854 3274020.000000 7.000000 3.000000 -1047796.937500 0.000000 
-1853.128945 -869.837871 -8.283691 4241543.000000 1.000000 1.000000 -1047728.437500 0.000000 
-2869.071328 -1352.513988 -16.835083 2876580.000000 7.000000 5.000000 -1047819.812500 0.000000 
-4045.401895 -675.947979 -108.752441 10149004.000000 7.000000 1.000000 -1046930.437500 0.000000 
-3026.703896 -752.342083 -107.836304 8066153.000000 7.000000 5.000000 -1047174.062500 0.000000 
-3249.894570 -819.640911 -108.234375 9252584.000000 7.000000 3.000000 -1047025.625000 0.000000 
-5076.745889 -350.317241 -52.847778 6907094.000000 4.000000 1.000000 -1047343.812500 0.000000 
-3666.556436 -963.186199 -10.613159 2487464.000000 7.000000 5.000000 -1047837.312500 0.000000 
-1911.527383 -1197.044689 -107.815308 6870484.000000 7.000000 5.000000 -1047351.625000 0.000000 
-4719.670938 -782.736980 -108.246460 7494604.000000 7.000000 3.000000 -1047254.062500 0.000000 
-2547.084023 -686.564495 -12.840454 2488156.000000 7.000000 5.000000 -1047837.000000 0.000000 
1099.988242 -288.241191 -41.558838 8027586.000000 7.000000 6.000000 -1047181.750000 0.000000 
-5174.029092 -1203.264690 -16.281006 2487278.000000 7.000000 4.000000 -1047837.375000 0.000000 
-1409.106973 -862.322917 -8.400757 4433364.000000 1.000000 1.000000 -1047709.750000 0.000000 
-910.692422 -307.256450 -44.412964 7151952.000000 1.000000 1.000000 -1047308.062500 0.000000 
-4148.612588 -593.696270 -107.296021 9557503.000000 6.000000 6.000000 -1046990.375000 0.000000 
-1948.997598 -868.733684 -107.787598 8944165.000000 7.000000 5.000000 -1047063.125000 0.000000 
-684.501504 -574.100566 -109.232666 9827707.000000 7.000000 1.000000 -1046963.687500 0.000000 
586.055137 -1089.968730 -13.119263 134287.000000 7.000000 3.000000 -1047932.000000 0.000000 
-188.923867 -590.266948 -108.216553 6257493.000000 7.000000 3.000000 -1047450.062500 0.000000 
-5277.989541 -1057.152324 -108.254150 7498455.000000 7.000000 3.000000 -1047253.312500 0.000000 
-4848.831338 -1241.785503 -16.260254 1505591.000000 7.000000 2.000000 -1047871.937500 0.000000 
-2937.405801 -273.131450 40.837646 5701342.000000 1.000000 1.000000 -1047536.812500 1.000000 
-1116.432168 -1133.860210 -107.827881 5381794.000000 7.000000 5.000000 -1047588.312500 0.000000 
1126.496055 -1242.884807 -16.920776 134288.000000 6.000000 2.000000 -1047932.000000 0.000000 
123.445273 -1281.839000 -16.841919 329236.000000 7.000000 1.000000 -1047921.062500 0.000000 
33.430137 -800.817424 -108.003174 6552054.000000 7.000000 4.000000 -1047403.687500 0.000000 
-4608.449746 -953.094585 -11.136353 4836916.000000 6.000000 6.000000 -1047665.375000 0.000000 
2610.527305 -695.396404 -107.553955 5341195.000000 7.000000 6.000000 -1047597.687500 0.000000 
-1385.531289 -549.443340 -109.071045 10427467.000000 7.000000 2.000000 -1046907.250000 0.000000 
1635.153281 -1239.793407 -109.450806 8627908.000000 5.000000 1.000000 -1047102.500000 0.000000 
-4985.166543 -1100.851787 -108.308594 5413297.000000 7.000000 4.000000 -1047582.000000 0.000000 
1209.748984 -1137.705303 -107.556030 5949355.000000 7.000000 6.000000 -1047499.875000 0.000000 
-442.170938 -963.290203 -10.209839 1311247.000000 5.000000 3.000000 -1047878.125000 0.000000 
-4921.439980 -761.922405 -107.600220 10751004.000000 7.000000 6.000000 -1046878.312500 0.000000 
-2894.694375 -276.629619 -15.431030 5404333.000000 1.000000 1.000000 -1047583.625000 1.000000 
-2872.685586 -623.227764 -150.567810 8951444.000000 5.000000 3.000000 -1047061.812500 0.000000 
-1682.046426 -1039.110698 -107.585327 7459674.000000 7.000000 6.000000 -1047261.562500 0.000000 
-5375.207559 -725.956707 -108.217163 8981963.000000 7.000000 3.000000 -1047055.375000 0.000000 
501.529258 -428.988506 -17.018921 530166.000000 6.000000 2.000000 -1047910.750000 0.000000 
