ply
format ascii 1.0
comment Created by CloudCompare v2.12 alpha
comment Created 6/6/2021 12:23 AM
obj_info Generated by CloudCompare!
element vertex 468
property double x
property double y
property double z
property float scalar_fullwaveIndex
property float scalar_NumberOfReturns
property float scalar_ReturnNumber
property float scalar_GpsTime
property float scalar_Intensity
property float scalar_Original_cloud_index
end_header
-4137.155068 -1466.593303 44.477539 6400343.000000 2.000000 1.000000 -726865.500000 0.000000 1.000000 
4358.068320 -1466.537502 89.178833 1376799.000000 1.000000 1.000000 -727310.312500 5.000000 1.000000 
4345.743125 -276.419048 89.285156 4337796.000000 1.000000 1.000000 -726987.625000 0.000000 1.000000 
5822.321250 -891.736675 -7.847168 3946011.000000 6.000000 2.000000 -727009.375000 0.000000 1.000000 
5078.377891 -767.029216 -10.712158 1991728.000000 1.000000 1.000000 -727180.062500 1.000000 1.000000 
2815.339805 -1463.245906 41.949341 6347538.000000 1.000000 1.000000 -726867.125000 0.000000 1.000000 
3101.998008 -873.158794 56.500122 5943108.000000 2.000000 1.000000 -726895.250000 0.000000 1.000000 
4366.689414 -1465.249996 89.190063 1376983.000000 2.000000 1.000000 -727310.250000 0.000000 1.000000 
4315.283164 -903.821575 -8.868042 1377026.000000 1.000000 1.000000 -727310.250000 2.000000 1.000000 
5223.361289 -1004.024822 -10.375488 4742411.000000 3.000000 1.000000 -726965.000000 0.000000 1.000000 
4318.261680 -903.421001 -8.856079 1377072.000000 1.000000 1.000000 -727310.250000 2.000000 1.000000 
4321.241172 -903.018596 -8.848267 1377118.000000 1.000000 1.000000 -727310.187500 2.000000 1.000000 
4324.221641 -902.627605 -8.835815 1377164.000000 1.000000 1.000000 -727310.187500 2.000000 1.000000 
-2773.336953 -273.019146 86.448730 6986202.000000 2.000000 1.000000 -726802.437500 0.000000 1.000000 
4330.183555 -901.844707 -8.820435 1377256.000000 1.000000 1.000000 -727310.187500 2.000000 1.000000 
-2898.188516 -1061.575420 73.976074 6007462.000000 2.000000 2.000000 -726894.000000 0.000000 1.000000 
5253.966758 -954.967815 -10.001953 6733335.000000 6.000000 3.000000 -726833.062500 0.000000 1.000000 
5814.847617 -865.985698 -8.682617 3945873.000000 6.000000 5.000000 -727009.437500 0.000000 1.000000 
4313.221641 -883.413311 -8.525879 4341661.000000 1.000000 1.000000 -726987.000000 0.000000 1.000000 
-2184.333047 -1463.798107 83.306519 6586140.000000 2.000000 2.000000 -726848.250000 0.000000 1.000000 
4298.837852 -278.515850 -3.685669 1377529.000000 1.000000 1.000000 -727310.062500 0.000000 1.000000 
5452.167930 -972.239299 -11.632568 6534155.000000 6.000000 6.000000 -726852.437500 0.000000 1.000000 
4302.875937 -279.911113 -2.742432 1377575.000000 1.000000 1.000000 -727310.062500 4.000000 1.000000 
-5153.981606 -273.599468 42.696655 10696374.000000 1.000000 1.000000 -726292.625000 0.000000 1.000000 
-4645.673379 -273.251323 87.084106 7776848.000000 1.000000 1.000000 -726676.625000 0.000000 1.000000 
4357.050742 -898.570171 -8.733643 1377670.000000 1.000000 1.000000 -727310.062500 2.000000 1.000000 
1589.715781 -273.791851 39.634277 9492052.000000 5.000000 4.000000 -726425.437500 0.000000 1.000000 
5139.788047 -955.985515 -10.542114 5539453.000000 3.000000 3.000000 -726922.125000 0.000000 1.000000 
5666.389609 -815.138103 -9.911865 5139850.000000 4.000000 4.000000 -726944.437500 0.000000 1.000000 
5054.905234 -895.094524 -8.792847 6932331.000000 6.000000 4.000000 -726809.000000 0.000000 1.000000 
-492.619180 -273.136333 40.284180 8133668.000000 1.000000 1.000000 -726618.750000 3.000000 1.000000 
4366.018516 -897.550029 -8.710938 1377808.000000 1.000000 1.000000 -727310.000000 2.000000 1.000000 
5570.426719 -740.911113 -11.230103 7128888.000000 7.000000 4.000000 -726787.375000 0.000000 1.000000 
5060.944297 -888.398418 -9.522461 6932285.000000 6.000000 6.000000 -726809.000000 0.000000 1.000000 
-4147.244180 -1467.061000 43.754028 6009850.000000 2.000000 2.000000 -726893.750000 0.000000 1.000000 
4751.629844 -807.711101 -9.688721 4541392.000000 2.000000 1.000000 -726976.312500 0.000000 1.000000 
4380.977500 -895.943096 -8.670776 1378038.000000 1.000000 1.000000 -727309.937500 2.000000 1.000000 
1947.496055 -280.315898 38.998657 1955524.000000 1.000000 1.000000 -727183.812500 0.000000 1.000000 
4386.965781 -895.323406 -8.660156 1378130.000000 1.000000 1.000000 -727309.875000 2.000000 1.000000 
-2010.552773 -1471.063503 40.184692 2128341.000000 7.000000 1.000000 -727158.500000 0.000000 1.000000 
4392.956016 -894.742107 -8.636353 1378222.000000 1.000000 1.000000 -727309.875000 2.000000 1.000000 
4395.952109 -894.445903 -8.632446 1378268.000000 1.000000 1.000000 -727309.875000 2.000000 1.000000 
4398.949180 -894.158611 -8.625732 1378314.000000 1.000000 1.000000 -727309.875000 2.000000 1.000000 
-3101.799355 -277.037090 47.761108 10683312.000000 1.000000 1.000000 -726295.125000 0.000000 1.000000 
4404.944297 -893.597820 -8.612061 1378406.000000 1.000000 1.000000 -727309.812500 2.000000 1.000000 
4407.942344 -893.320903 -8.607300 1378452.000000 1.000000 1.000000 -727309.812500 2.000000 1.000000 
3400.956992 -273.135845 11.427246 6337097.000000 4.000000 1.000000 -726868.562500 0.000000 1.000000 
5303.802695 -738.294475 -11.461670 2193346.000000 1.000000 1.000000 -727149.250000 0.000000 1.000000 
-1092.178750 -1469.229106 40.416260 2130183.000000 6.000000 4.000000 -727158.000000 0.000000 1.000000 
4419.941367 -892.276409 -8.576660 1378636.000000 1.000000 1.000000 -727309.750000 2.000000 1.000000 
-530.469277 -276.436504 36.817749 8133990.000000 2.000000 2.000000 -726618.687500 0.000000 1.000000 
5160.450156 -832.422527 -9.072144 1992924.000000 1.000000 1.000000 -727179.875000 1.000000 1.000000 
4746.748008 -1463.594707 43.513428 2992323.000000 3.000000 2.000000 -727075.937500 0.000000 1.000000 
4404.703086 -278.864482 1.964966 1378771.000000 1.000000 1.000000 -727309.750000 1.000000 1.000000 
4756.105430 -811.883525 -9.683716 2987538.000000 1.000000 1.000000 -727076.687500 0.000000 1.000000 
-1582.890664 -273.472759 39.153809 8725182.000000 1.000000 1.000000 -726528.937500 3.000000 1.000000 
4434.953086 -891.057109 -8.548340 1378866.000000 1.000000 1.000000 -727309.687500 2.000000 1.000000 
-550.810098 -1466.281795 44.297119 6770049.000000 1.000000 1.000000 -726829.375000 0.000000 1.000000 
-5164.350747 -278.899517 42.858154 5238935.000000 7.000000 6.000000 -726938.875000 0.000000 1.000000 
4443.965781 -890.378276 -8.532349 1379004.000000 1.000000 1.000000 -727309.625000 2.000000 1.000000 
4446.970664 -890.168804 -8.521973 1379050.000000 1.000000 1.000000 -727309.625000 2.000000 1.000000 
5029.368125 -742.448406 -10.207153 6534110.000000 5.000000 1.000000 -726852.437500 0.000000 1.000000 
5103.647422 -954.939189 -9.152832 4343407.000000 4.000000 1.000000 -726986.625000 0.000000 1.000000 
4455.989219 -889.537029 -8.510742 1379188.000000 1.000000 1.000000 -727309.625000 2.000000 1.000000 
4458.996055 -889.337688 -8.505493 1379234.000000 1.000000 1.000000 -727309.562500 2.000000 1.000000 
5492.024375 -727.485027 -11.717163 3188279.000000 2.000000 1.000000 -727061.562500 0.000000 1.000000 
4465.012656 -888.956584 -8.492432 1379326.000000 1.000000 1.000000 -727309.562500 2.000000 1.000000 
4950.173789 -271.143901 41.044678 10667676.000000 7.000000 2.000000 -726297.187500 0.000000 1.000000 
4471.030234 -888.582073 -8.487061 1379418.000000 1.000000 1.000000 -727309.562500 2.000000 1.000000 
-165.415078 -1465.409297 89.015015 6766875.000000 1.000000 1.000000 -726829.562500 1.000000 1.000000 
5280.894492 -796.442791 -10.070068 3944540.000000 5.000000 4.000000 -727009.750000 0.000000 1.000000 
4480.059531 -888.054119 -8.478882 1379556.000000 1.000000 1.000000 -727309.500000 2.000000 1.000000 
4761.842734 -921.995525 -9.456543 7131971.000000 6.000000 4.000000 -726786.687500 0.000000 1.000000 
5640.721641 -934.216777 -9.783081 6334745.000000 6.000000 4.000000 -726869.000000 0.000000 1.000000 
-5697.427896 -273.170635 52.776001 9537726.000000 1.000000 1.000000 -726416.062500 3.000000 1.000000 
1686.164023 -1462.944805 85.946045 6553803.000000 1.000000 1.000000 -726849.937500 0.000000 1.000000 
3101.121055 -902.415813 51.813721 6741113.000000 5.000000 1.000000 -726831.562500 0.000000 1.000000 
4370.212852 -272.394756 38.415405 9094061.000000 7.000000 1.000000 -726477.562500 0.000000 1.000000 
4498.129844 -887.140483 -8.449707 1379832.000000 1.000000 1.000000 -727309.437500 2.000000 1.000000 
4501.497031 -1469.865901 3.785156 1379836.000000 1.000000 1.000000 -727309.437500 7.000000 1.000000 
4941.206016 -900.743877 -9.218872 6535122.000000 6.000000 5.000000 -726852.187500 0.000000 1.000000 
4498.483359 -277.760356 4.473877 1379875.000000 2.000000 2.000000 -727309.437500 0.000000 1.000000 
4501.142539 -887.001323 -8.446655 1379878.000000 1.000000 1.000000 -727309.437500 2.000000 1.000000 
2324.719687 -277.090435 88.997925 3929780.000000 1.000000 1.000000 -727011.437500 0.000000 1.000000 
4972.707969 -852.558879 -8.896240 4143353.000000 3.000000 3.000000 -726997.750000 0.000000 1.000000 
-4472.032754 -273.776104 38.725952 8361599.000000 1.000000 1.000000 -726581.750000 1.000000 1.000000 
4505.809531 -1467.382701 1.752441 1379928.000000 2.000000 1.000000 -727309.375000 0.000000 1.000000 
-4698.289834 -272.994854 30.824219 7972578.000000 1.000000 1.000000 -726642.687500 0.000000 1.000000 
4510.184531 -886.609600 -8.438354 1380016.000000 1.000000 1.000000 -727309.375000 2.000000 1.000000 
5118.035117 -273.501079 88.356323 8896399.000000 7.000000 4.000000 -726504.875000 0.000000 1.000000 
-5400.081582 -272.099224 82.149780 7583879.000000 3.000000 1.000000 -726708.625000 0.000000 1.000000 
4519.229453 -886.256328 -8.431763 1380154.000000 1.000000 1.000000 -727309.375000 2.000000 1.000000 
5394.599570 -716.158184 -10.795898 6731909.000000 6.000000 1.000000 -726833.312500 0.000000 1.000000 
4525.260703 -886.050396 -8.422974 1380246.000000 1.000000 1.000000 -727309.312500 2.000000 1.000000 
4528.277305 -885.951091 -8.420654 1380292.000000 1.000000 1.000000 -727309.312500 2.000000 1.000000 
-4905.284707 -1470.296199 41.395752 2520030.000000 7.000000 5.000000 -727111.125000 0.000000 1.000000 
5398.400352 -944.183025 -9.739014 5937352.000000 5.000000 3.000000 -726896.375000 0.000000 1.000000 
4537.328086 -885.677898 -8.415039 1380430.000000 1.000000 1.000000 -727309.250000 2.000000 1.000000 
4540.345664 -885.594707 -8.414063 1380476.000000 1.000000 1.000000 -727309.250000 2.000000 1.000000 
4543.364219 -885.511577 -8.416016 1380522.000000 1.000000 1.000000 -727309.250000 2.000000 1.000000 
4546.381797 -885.447429 -8.408447 1380568.000000 1.000000 1.000000 -727309.250000 2.000000 1.000000 
4549.400352 -885.379802 -8.406250 1380614.000000 1.000000 1.000000 -727309.250000 2.000000 1.000000 
4552.418906 -885.314189 -8.405640 1380660.000000 1.000000 1.000000 -727309.187500 2.000000 1.000000 
-4272.316934 -1465.455303 89.055786 5815178.000000 2.000000 1.000000 -726905.750000 0.000000 1.000000 
-4656.053506 -273.576763 85.166382 5823412.000000 7.000000 5.000000 -726903.875000 0.000000 1.000000 
-3028.459268 -279.963726 85.847900 1934539.000000 7.000000 4.000000 -727189.562500 0.000000 1.000000 
4873.165977 -816.674419 -9.508301 2390550.000000 1.000000 1.000000 -727124.437500 0.000000 1.000000 
4534.398398 -889.910381 -8.525757 1986900.000000 1.000000 1.000000 -727180.687500 1.000000 1.000000 
3031.602500 -276.309185 89.247681 4133421.000000 1.000000 1.000000 -726998.875000 0.000000 1.000000 
5580.265586 -716.420391 -12.121094 6532683.000000 6.000000 4.000000 -726852.750000 0.000000 1.000000 
4576.579062 -884.947185 -8.404663 1381028.000000 1.000000 1.000000 -727309.125000 2.000000 1.000000 
-121.257852 -1467.380703 89.411743 6766507.000000 1.000000 1.000000 -726829.562500 0.000000 1.000000 
4579.599570 -884.942302 -8.391235 1381074.000000 1.000000 1.000000 -727309.062500 2.000000 1.000000 
-4035.166055 -1464.329906 88.951538 4452660.000000 3.000000 1.000000 -726979.500000 0.000000 1.000000 
-2898.263223 -813.048625 67.505249 6398553.000000 1.000000 1.000000 -726865.750000 0.000000 1.000000 
5284.444297 -909.657085 -9.061157 3584982.000000 2.000000 2.000000 -727035.000000 0.000000 1.000000 
-2897.876504 -825.276409 115.715454 6593500.000000 4.000000 2.000000 -726847.562500 0.000000 1.000000 
4887.241172 -1464.215999 88.719360 1995733.000000 4.000000 2.000000 -727179.375000 0.000000 1.000000 
5168.855430 -917.145610 -10.003662 4542541.000000 4.000000 4.000000 -726976.125000 0.000000 1.000000 
5843.848594 -766.772197 -10.520264 6134691.000000 6.000000 3.000000 -726883.375000 0.000000 1.000000 
4600.753867 -884.884929 -8.395264 1381396.000000 1.000000 1.000000 -727309.000000 2.000000 1.000000 
5607.258750 -945.209087 -8.817017 4543092.000000 6.000000 1.000000 -726976.000000 0.000000 1.000000 
-3836.225869 -275.699443 42.647583 2526471.000000 7.000000 7.000000 -727109.437500 0.000000 1.000000 
4609.822227 -884.928325 -8.397339 1381534.000000 1.000000 1.000000 -727309.000000 2.000000 1.000000 
-4192.012002 -1466.618007 45.269043 2520721.000000 3.000000 1.000000 -727111.000000 0.000000 1.000000 
5272.266562 -273.053203 37.430542 10470566.000000 7.000000 3.000000 -726316.000000 0.000000 1.000000 
4618.892539 -885.020488 -8.394287 1381672.000000 1.000000 1.000000 -727308.937500 2.000000 1.000000 
4621.915977 -885.051494 -8.399048 1381718.000000 1.000000 1.000000 -727308.937500 2.000000 1.000000 
-700.951699 -275.025737 19.628784 10675218.000000 1.000000 1.000000 -726296.312500 1.000000 1.000000 
5648.664023 -922.108623 -8.332031 3387918.000000 2.000000 1.000000 -727048.312500 0.000000 1.000000 
4297.577109 -869.637187 -8.084106 1781831.000000 1.000000 1.000000 -727218.500000 2.000000 1.000000 
1489.689414 -276.061260 38.546753 10671217.000000 7.000000 7.000000 -726296.875000 0.000000 1.000000 
4598.880820 -1468.174602 3.574097 1381906.000000 1.000000 1.000000 -727308.875000 1.000000 1.000000 
3700.221641 -279.558330 -2.237427 3774550.000000 2.000000 1.000000 -727021.375000 0.000000 1.000000 
4600.956016 -1469.711193 4.909668 1381952.000000 1.000000 1.000000 -727308.875000 6.000000 1.000000 
4640.060508 -885.373027 -8.401855 1381994.000000 1.000000 1.000000 -727308.875000 2.000000 1.000000 
4603.124961 -1469.700206 4.857910 1381998.000000 1.000000 1.000000 -727308.875000 5.000000 1.000000 
-4941.491982 -272.144023 40.140381 6799438.000000 7.000000 2.000000 -726825.500000 0.000000 1.000000 
245.007285 -1462.710506 42.801392 2134649.000000 2.000000 1.000000 -727156.625000 0.000000 1.000000 
4646.110312 -885.503276 -8.411743 1382086.000000 1.000000 1.000000 -727308.812500 2.000000 1.000000 
976.812949 -274.431621 44.285400 7344860.000000 1.000000 1.000000 -726751.750000 0.000000 1.000000 
5559.405234 -1010.544414 -11.397095 4344280.000000 5.000000 3.000000 -726986.437500 0.000000 1.000000 
4698.082969 -277.450908 5.205933 1382221.000000 1.000000 1.000000 -727308.812500 0.000000 1.000000 
3101.970664 -925.225505 119.661255 6143345.000000 1.000000 1.000000 -726881.875000 0.000000 1.000000 
2358.770469 -278.586284 88.467041 2361617.000000 1.000000 1.000000 -727125.750000 3.000000 1.000000 
4658.209922 -885.835796 -8.420044 1382270.000000 1.000000 1.000000 -727308.750000 2.000000 1.000000 
5501.219687 -1469.903499 39.127930 3786323.000000 7.000000 4.000000 -727019.312500 0.000000 1.000000 
4661.234336 -885.944805 -8.412598 1382316.000000 1.000000 1.000000 -727308.750000 2.000000 1.000000 
561.778281 -273.216167 85.136230 7736734.000000 1.000000 1.000000 -726685.312500 2.000000 1.000000 
4667.285117 -886.133403 -8.426025 1382408.000000 1.000000 1.000000 -727308.687500 2.000000 1.000000 
-3072.228311 -272.259624 39.282959 6597733.000000 2.000000 1.000000 -726846.812500 0.000000 1.000000 
4827.309531 -826.639873 -9.541138 3943713.000000 4.000000 4.000000 -727009.937500 0.000000 1.000000 
4676.361289 -886.472576 -8.431763 1382546.000000 1.000000 1.000000 -727308.687500 2.000000 1.000000 
5799.698203 -883.830120 -7.949585 6135335.000000 6.000000 2.000000 -726883.187500 0.000000 1.000000 
3101.454062 -739.605388 -3.028931 7137954.000000 7.000000 2.000000 -726785.562500 0.000000 1.000000 
4685.437461 -886.849285 -8.439941 1382684.000000 1.000000 1.000000 -727308.625000 2.000000 1.000000 
3701.155234 -275.721050 90.534058 5736291.000000 1.000000 1.000000 -726909.000000 0.000000 1.000000 
4691.488242 -887.117229 -8.449463 1382776.000000 1.000000 1.000000 -727308.562500 1.000000 1.000000 
4694.513633 -887.257976 -8.454224 1382822.000000 1.000000 1.000000 -727308.562500 1.000000 1.000000 
3801.618125 -272.754253 57.380737 6933668.000000 6.000000 1.000000 -726808.750000 0.000000 1.000000 
5280.685508 -908.447612 -9.128418 6733059.000000 6.000000 4.000000 -726833.125000 0.000000 1.000000 
-1614.072305 -274.221660 83.126099 8919716.000000 1.000000 1.000000 -726501.000000 2.000000 1.000000 
3102.348594 -765.198406 112.716797 5942234.000000 3.000000 3.000000 -726895.375000 0.000000 1.000000 
3102.572227 -872.967388 29.471069 1966523.000000 7.000000 2.000000 -727182.625000 0.000000 1.000000 
4021.640586 -277.685039 82.177124 8308610.000000 6.000000 6.000000 -726592.062500 0.000000 1.000000 
-669.910684 -273.073955 85.820801 10086647.000000 4.000000 3.000000 -726354.437500 0.000000 1.000000 
5395.518516 -756.291729 -9.844360 4143582.000000 5.000000 1.000000 -726997.687500 0.000000 1.000000 
-4786.628701 -273.880596 43.687256 10499172.000000 1.000000 1.000000 -726311.000000 0.000000 1.000000 
3489.255820 -280.365337 40.405640 3176047.000000 1.000000 1.000000 -727062.750000 0.000000 1.000000 
4727.792930 -889.117412 -8.500854 1383328.000000 1.000000 1.000000 -727308.375000 1.000000 1.000000 
5548.444297 -773.049297 -11.091797 7129072.000000 7.000000 6.000000 -726787.312500 0.000000 1.000000 
5106.897422 -961.988323 -10.358643 4343453.000000 4.000000 2.000000 -726986.625000 0.000000 1.000000 
5231.327109 -885.379619 -8.427979 1793421.000000 1.000000 1.000000 -727216.625000 1.000000 1.000000 
3102.001914 -838.667400 74.893799 5942832.000000 1.000000 1.000000 -726895.312500 0.000000 1.000000 
5214.293906 -827.380474 -9.280518 2392895.000000 1.000000 1.000000 -727124.125000 0.000000 1.000000 
-4296.892861 -273.302593 57.965454 8749470.000000 1.000000 1.000000 -726523.500000 3.000000 1.000000 
-5494.391763 -273.708843 22.529053 2523985.000000 2.000000 1.000000 -727110.187500 0.000000 1.000000 
4332.978477 -1470.279598 87.994019 4345801.000000 7.000000 1.000000 -726986.125000 0.000000 1.000000 
5141.882773 -940.913372 -9.877930 5539361.000000 3.000000 2.000000 -726922.187500 0.000000 1.000000 
4751.990195 -890.812114 -8.538330 1383696.000000 1.000000 1.000000 -727308.312500 1.000000 1.000000 
5421.019492 -957.926006 -10.354736 2594007.000000 1.000000 1.000000 -727104.875000 0.000000 1.000000 
4758.039023 -891.273601 -8.552979 1383788.000000 1.000000 1.000000 -727308.250000 1.000000 1.000000 
4761.062461 -891.518779 -8.555298 1383834.000000 1.000000 1.000000 -727308.250000 1.000000 1.000000 
5158.106406 -274.142192 43.293701 5535313.000000 7.000000 5.000000 -726923.375000 0.000000 1.000000 
4767.112266 -891.999126 -8.575562 1383926.000000 1.000000 1.000000 -727308.250000 1.000000 1.000000 
4770.134727 -892.256877 -8.578735 1383972.000000 1.000000 1.000000 -727308.187500 1.000000 1.000000 
5637.427695 -942.527629 -9.991943 6334791.000000 6.000000 4.000000 -726869.000000 0.000000 1.000000 
-3297.282510 -272.253765 71.444458 6015282.000000 4.000000 1.000000 -726892.562500 0.000000 1.000000 
-4866.824014 -273.491069 39.112427 9142540.000000 1.000000 1.000000 -726467.937500 3.000000 1.000000 
5257.287070 -1466.349605 44.090942 2199052.000000 1.000000 1.000000 -727148.250000 1.000000 1.000000 
-133.256875 -280.273784 85.225220 2340130.000000 1.000000 1.000000 -727127.812500 0.000000 1.000000 
-2595.939492 -1462.328594 64.345459 1929894.000000 7.000000 1.000000 -727190.750000 0.000000 1.000000 
4782.227500 -893.316021 -8.602783 1384156.000000 1.000000 1.000000 -727308.125000 1.000000 1.000000 
5136.904258 -970.904888 -10.624756 5539545.000000 3.000000 2.000000 -726922.125000 0.000000 1.000000 
4788.272422 -893.871501 -8.615845 1384248.000000 1.000000 1.000000 -727308.125000 1.000000 1.000000 
1174.589805 -279.082622 87.850342 1949450.000000 1.000000 1.000000 -727185.062500 1.000000 1.000000 
4794.317344 -894.440227 -8.632324 1384340.000000 1.000000 1.000000 -727308.125000 1.000000 1.000000 
198.807578 -275.469463 49.132446 9495915.000000 1.000000 1.000000 -726424.812500 1.000000 1.000000 
3101.998984 -867.387615 59.598389 5943062.000000 2.000000 1.000000 -726895.250000 0.000000 1.000000 
-2897.893105 -930.189983 101.398071 6788263.000000 6.000000 3.000000 -726827.750000 0.000000 1.000000 
5201.756797 -908.454692 -8.818848 5339813.000000 3.000000 2.000000 -726932.312500 0.000000 1.000000 
-4096.072305 -280.161235 50.638184 5239260.000000 5.000000 2.000000 -726938.687500 0.000000 1.000000 
5163.169883 -793.254070 -10.071655 3385895.000000 2.000000 1.000000 -727048.625000 0.000000 1.000000 
5506.621055 -913.511821 -8.012329 5737942.000000 6.000000 1.000000 -726908.562500 0.000000 1.000000 
4720.170859 -274.280742 86.386719 5535498.000000 4.000000 4.000000 -726923.250000 0.000000 1.000000 
4635.488242 -278.725444 88.419189 6532685.000000 6.000000 3.000000 -726852.750000 0.000000 1.000000 
4818.488242 -896.905803 -8.693237 1384708.000000 1.000000 1.000000 -727308.000000 1.000000 1.000000 
-2799.054727 -280.915752 74.980225 3719351.000000 3.000000 1.000000 -727022.250000 0.000000 1.000000 
5427.165000 -966.887187 -10.576050 2594099.000000 1.000000 1.000000 -727104.875000 0.000000 1.000000 
860.125449 -274.856548 38.248047 9886364.000000 6.000000 4.000000 -726377.250000 0.000000 1.000000 
-4778.346230 -277.926006 37.236328 7385849.000000 4.000000 4.000000 -726742.937500 0.000000 1.000000 
5094.306602 -835.404888 -7.817749 6931963.000000 6.000000 1.000000 -726809.062500 0.000000 1.000000 
4766.267539 -803.726116 -9.778076 1988923.000000 1.000000 1.000000 -727180.437500 1.000000 1.000000 
4839.624961 -899.289714 -8.755615 1385030.000000 1.000000 1.000000 -727307.937500 1.000000 1.000000 
-4196.907998 -1471.103099 22.884521 2915818.000000 7.000000 1.000000 -727081.187500 0.000000 1.000000 
5065.660117 -900.666423 -7.783325 5738495.000000 3.000000 1.000000 -726908.437500 0.000000 1.000000 
4848.677695 -900.386516 -8.778198 1385168.000000 1.000000 1.000000 -727307.875000 1.000000 1.000000 
4700.065391 -926.895000 -9.021606 6734808.000000 6.000000 2.000000 -726832.750000 0.000000 1.000000 
5101.119102 -1468.571193 53.640503 5940710.000000 2.000000 2.000000 -726895.687500 0.000000 1.000000 
1387.484336 -279.732036 37.920166 1751326.000000 1.000000 1.000000 -727224.312500 0.000000 1.000000 
-5494.693154 -275.392559 29.541748 8952653.000000 1.000000 1.000000 -726494.312500 1.000000 1.000000 
5393.474570 -959.888530 -9.858398 5937444.000000 5.000000 2.000000 -726896.312500 0.000000 1.000000 
-1410.713418 -274.543315 82.337646 10481005.000000 5.000000 2.000000 -726314.625000 0.000000 1.000000 
4761.898398 -845.861980 -8.984253 5539224.000000 2.000000 2.000000 -726922.187500 0.000000 1.000000 
5689.169883 -1463.661006 42.962036 6535718.000000 2.000000 1.000000 -726852.125000 0.000000 1.000000 
3114.150352 -277.483501 89.010742 1766509.000000 1.000000 1.000000 -727220.937500 2.000000 1.000000 
-1047.487832 -273.890361 82.823608 10283849.000000 4.000000 1.000000 -726333.750000 0.000000 1.000000 
4159.466758 -876.874187 -7.093262 7133904.000000 4.000000 1.000000 -726786.312500 0.000000 1.000000 
4999.935508 -279.297344 -6.995850 1385717.000000 1.000000 1.000000 -727307.750000 3.000000 1.000000 
4884.865195 -905.141704 -8.897705 1385720.000000 1.000000 1.000000 -727307.687500 1.000000 1.000000 
5549.232383 -746.018474 -11.057861 5736976.000000 5.000000 3.000000 -726908.812500 0.000000 1.000000 
4887.877891 -905.570293 -8.906006 1385766.000000 1.000000 1.000000 -727307.687500 1.000000 1.000000 
5821.929648 -669.119670 -12.149658 2990709.000000 3.000000 1.000000 -727076.187500 0.000000 1.000000 
4453.854453 -827.844890 -9.151733 4740757.000000 1.000000 1.000000 -726965.312500 0.000000 1.000000 
-2897.907266 -823.704814 30.699707 3715442.000000 2.000000 1.000000 -727022.625000 0.000000 1.000000 
4893.902305 -906.437603 -8.924927 1385858.000000 1.000000 1.000000 -727307.687500 1.000000 1.000000 
4788.501914 -1465.587902 89.208008 1385861.000000 2.000000 1.000000 -727307.687500 1.000000 1.000000 
3102.273398 -958.179973 99.967041 6143575.000000 1.000000 1.000000 -726881.875000 0.000000 1.000000 
5756.208945 -800.730327 -9.103394 6930076.000000 7.000000 2.000000 -726809.375000 0.000000 1.000000 
2229.386680 -275.224346 83.176147 9294298.000000 6.000000 4.000000 -726451.000000 0.000000 1.000000 
-3042.588174 -273.210674 41.203857 10097455.000000 1.000000 1.000000 -726352.625000 1.000000 1.000000 
4000.123008 -870.440105 -8.062866 1979863.000000 1.000000 1.000000 -727181.375000 2.000000 1.000000 
4795.059531 -1466.545299 89.181152 1385999.000000 1.000000 1.000000 -727307.625000 5.000000 1.000000 
3745.321250 -273.791606 88.217529 5135669.000000 1.000000 1.000000 -726946.000000 0.000000 1.000000 
3922.713828 -275.062480 88.564819 5935884.000000 1.000000 1.000000 -726896.687500 0.000000 1.000000 
5367.443320 -1026.556011 -11.186523 7130544.000000 7.000000 2.000000 -726787.000000 0.000000 1.000000 
4799.324180 -1467.741603 89.619629 1386091.000000 1.000000 1.000000 -727307.562500 8.000000 1.000000 
4896.541953 -995.407085 -10.170654 3944817.000000 3.000000 1.000000 -727009.687500 0.000000 1.000000 
-3009.241982 -1465.346401 88.844849 6200246.000000 1.000000 1.000000 -726880.875000 0.000000 1.000000 
5799.817344 -1468.102794 80.677612 3589075.000000 7.000000 7.000000 -727034.187500 0.000000 1.000000 
5399.469687 -763.667827 -10.892822 4143628.000000 5.000000 4.000000 -726997.687500 0.000000 1.000000 
5853.674766 -781.772502 -9.879028 3783424.000000 6.000000 2.000000 -727019.875000 0.000000 1.000000 
4806.055625 -1467.846004 88.830933 1386229.000000 1.000000 1.000000 -727307.562500 11.000000 1.000000 
5779.628867 -943.033123 -8.677856 6135657.000000 6.000000 1.000000 -726883.125000 0.000000 1.000000 
-5094.664346 -278.338237 40.284546 2326874.000000 7.000000 7.000000 -727130.937500 0.000000 1.000000 
4924.005820 -911.012676 -9.043457 1386318.000000 1.000000 1.000000 -727307.500000 1.000000 1.000000 
5507.040000 -922.078472 -9.744019 5737988.000000 6.000000 5.000000 -726908.562500 0.000000 1.000000 
4927.014609 -911.491985 -9.057739 1386364.000000 1.000000 1.000000 -727307.500000 1.000000 1.000000 
5008.898398 -960.756206 -10.322266 2392574.000000 1.000000 1.000000 -727124.125000 0.000000 1.000000 
5360.159141 -839.727092 -8.440674 3782735.000000 5.000000 2.000000 -727020.000000 0.000000 1.000000 
4814.895469 -1468.732494 88.368774 1386413.000000 1.000000 1.000000 -727307.500000 15.000000 1.000000 
-1619.730996 -274.940410 82.523438 8919762.000000 1.000000 1.000000 -726501.000000 1.000000 1.000000 
5168.097617 -884.574626 -8.410522 3188188.000000 1.000000 1.000000 -727061.562500 0.000000 1.000000 
4936.035117 -912.963115 -9.096191 1386502.000000 1.000000 1.000000 -727307.437500 1.000000 1.000000 
1709.688437 -1462.549404 38.348267 6950229.000000 1.000000 1.000000 -726806.312500 0.000000 1.000000 
-4722.034219 -1469.907894 88.438843 4841680.000000 7.000000 1.000000 -726959.875000 0.000000 1.000000 
4505.303672 -924.759380 -9.413574 3781127.000000 2.000000 1.000000 -727020.375000 0.000000 1.000000 
4582.723594 -274.145244 40.409058 10864832.000000 7.000000 7.000000 -726276.375000 0.000000 1.000000 
4685.892539 -947.146404 -8.848145 6734946.000000 6.000000 1.000000 -726832.750000 0.000000 1.000000 
-159.897988 -1465.725902 89.021118 6766829.000000 1.000000 1.000000 -726829.562500 1.000000 1.000000 
5869.872031 -690.672527 -11.431030 6134277.000000 6.000000 1.000000 -726883.437500 0.000000 1.000000 
4764.656211 -832.088481 -9.097046 5539132.000000 2.000000 1.000000 -726922.187500 0.000000 1.000000 
2001.122031 -272.812114 60.373657 6943654.000000 2.000000 1.000000 -726807.062500 0.000000 1.000000 
4951.056602 -915.521282 -9.150513 1386732.000000 1.000000 1.000000 -727307.375000 1.000000 1.000000 
5155.905234 -850.010723 -8.974365 4542127.000000 3.000000 3.000000 -726976.187500 0.000000 1.000000 
3822.726523 -272.829692 85.707642 6535125.000000 3.000000 2.000000 -726852.187500 0.000000 1.000000 
4832.769492 -1469.776104 86.687256 1386781.000000 1.000000 1.000000 -727307.375000 12.000000 1.000000 
4957.066367 -916.556194 -9.185791 1386824.000000 1.000000 1.000000 -727307.375000 1.000000 1.000000 
1881.901328 -273.646953 84.995972 9491408.000000 5.000000 4.000000 -726425.562500 0.000000 1.000000 
2480.471641 -279.683330 87.167480 1759976.000000 1.000000 1.000000 -727222.062500 3.000000 1.000000 
4945.110312 -942.867473 -10.202393 5938181.000000 3.000000 3.000000 -726896.187500 0.000000 1.000000 
4963.068320 -917.632488 -9.205688 1386916.000000 1.000000 1.000000 -727307.312500 1.000000 1.000000 
4839.540977 -1469.943904 85.818115 1386919.000000 1.000000 1.000000 -727307.312500 8.000000 1.000000 
3101.967734 -938.282695 111.988403 6143437.000000 1.000000 1.000000 -726881.875000 0.000000 1.000000 
5064.390586 -792.491680 -10.120117 4342395.000000 4.000000 3.000000 -726986.875000 0.000000 1.000000 
-3492.277383 -272.644512 86.066162 5433566.000000 5.000000 3.000000 -726928.937500 0.000000 1.000000 
-3594.182412 -276.620098 44.428955 4267786.000000 1.000000 1.000000 -726988.375000 0.000000 1.000000 
4972.072227 -919.255413 -9.252930 1387054.000000 1.000000 1.000000 -727307.312500 1.000000 1.000000 
5851.926719 -850.025981 -8.727905 1998258.000000 1.000000 1.000000 -727178.937500 0.000000 1.000000 
5145.274375 -910.634502 -8.034668 5539177.000000 3.000000 1.000000 -726922.187500 0.000000 1.000000 
4848.699180 -1469.686901 84.208618 1387103.000000 2.000000 1.000000 -727307.312500 1.000000 1.000000 
4978.071250 -920.362529 -9.282715 1387146.000000 1.000000 1.000000 -727307.250000 1.000000 1.000000 
5886.795859 -274.206646 89.605347 4738821.000000 4.000000 1.000000 -726965.687500 0.000000 1.000000 
-912.366738 -1466.024898 89.056152 2725707.000000 1.000000 1.000000 -727093.250000 0.000000 1.000000 
5266.559531 -757.846721 -10.759644 3944310.000000 5.000000 3.000000 -727009.812500 0.000000 1.000000 
5686.063437 -827.288494 -9.651245 6334147.000000 6.000000 5.000000 -726869.125000 0.000000 1.000000 
5631.681602 -1021.319011 -11.825195 3190395.000000 2.000000 1.000000 -727061.125000 0.000000 1.000000 
4990.059531 -922.644695 -9.333618 1387330.000000 1.000000 1.000000 -727307.250000 1.000000 1.000000 
4993.055625 -923.226909 -9.346191 1387376.000000 1.000000 1.000000 -727307.187500 1.000000 1.000000 
203.880332 -1463.388698 32.209961 6961086.000000 1.000000 1.000000 -726805.375000 0.000000 1.000000 
5123.339805 -275.599590 89.149902 8896399.000000 7.000000 7.000000 -726504.875000 0.000000 1.000000 
-2898.185586 -965.210186 45.979248 2525047.000000 2.000000 2.000000 -727109.812500 0.000000 1.000000 
3378.930625 -1462.104793 85.242432 5946142.000000 2.000000 1.000000 -726894.750000 0.000000 1.000000 
5576.637656 -966.430828 -10.855225 5539038.000000 6.000000 5.000000 -726922.250000 0.000000 1.000000 
3102.003867 -742.759014 4.889160 4137148.000000 2.000000 2.000000 -726998.625000 0.000000 1.000000 
4841.140586 -907.049907 -9.253052 5140588.000000 2.000000 2.000000 -726944.125000 0.000000 1.000000 
5451.592734 -907.227825 -9.530640 7129854.000000 7.000000 6.000000 -726787.125000 0.000000 1.000000 
4412.608359 -856.384990 -8.492920 3942840.000000 2.000000 1.000000 -727010.125000 0.000000 1.000000 
5278.044883 -895.771282 -8.712036 3584890.000000 2.000000 2.000000 -727035.000000 0.000000 1.000000 
-2898.180215 -773.728923 93.079956 2922030.000000 2.000000 2.000000 -727079.375000 0.000000 1.000000 
5599.604453 -272.514873 1.287842 4937634.000000 7.000000 6.000000 -726956.250000 0.000000 1.000000 
4419.370078 -930.247417 -8.520020 6536825.000000 4.000000 1.000000 -726851.875000 0.000000 1.000000 
5269.684531 -272.305522 37.159424 10470566.000000 7.000000 2.000000 -726316.000000 0.000000 1.000000 
-8.700234 -1465.771999 88.798218 1935097.000000 3.000000 3.000000 -727189.375000 0.000000 1.000000 
5040.911094 -933.086101 -9.598755 1388112.000000 1.000000 1.000000 -727307.000000 1.000000 1.000000 
4200.493125 -883.861492 -8.458252 6736281.000000 4.000000 3.000000 -726832.437500 0.000000 1.000000 
5418.501914 -955.352703 -10.375000 7130130.000000 7.000000 5.000000 -726787.062500 0.000000 1.000000 
2271.657187 -1465.931407 89.030151 1749354.000000 1.000000 1.000000 -727224.875000 1.000000 1.000000 
-4696.095254 -280.872417 51.495483 5823412.000000 7.000000 6.000000 -726903.875000 0.000000 1.000000 
1787.098594 -278.437603 88.530884 2154522.000000 1.000000 1.000000 -727152.500000 2.000000 1.000000 
5433.926719 -930.484294 -9.086182 7129992.000000 7.000000 3.000000 -726787.125000 0.000000 1.000000 
5052.846641 -935.732280 -9.662598 1388296.000000 1.000000 1.000000 -727306.937500 1.000000 1.000000 
4498.664023 -913.885784 -9.108887 2187783.000000 1.000000 1.000000 -727150.000000 1.000000 1.000000 
5293.282187 -944.570171 -9.928955 1994902.000000 1.000000 1.000000 -727179.562500 1.000000 1.000000 
-894.576211 -280.103374 85.981812 2137956.000000 1.000000 1.000000 -727155.687500 0.000000 1.000000 
5402.118125 -279.965557 48.111206 1791348.000000 1.000000 1.000000 -727217.000000 1.000000 1.000000 
-1104.580117 -276.647441 44.855835 7169753.000000 7.000000 1.000000 -726780.000000 0.000000 1.000000 
5118.434531 -756.905498 -10.956543 1388525.000000 1.000000 1.000000 -727306.875000 1.000000 1.000000 
5067.748984 -939.142070 -9.742554 1388526.000000 1.000000 1.000000 -727306.875000 1.000000 1.000000 
-2794.008340 -273.458843 84.820068 10095937.000000 2.000000 2.000000 -726352.937500 1.000000 1.000000 
2267.889609 -273.271709 41.595947 7726294.000000 1.000000 1.000000 -726687.687500 0.000000 1.000000 
5124.899375 -758.537395 -10.918457 1388617.000000 1.000000 1.000000 -727306.875000 1.000000 1.000000 
5073.704062 -940.537029 -9.775269 1388618.000000 1.000000 1.000000 -727306.875000 1.000000 1.000000 
5500.612266 -753.827129 -11.140625 4342808.000000 6.000000 4.000000 -726986.750000 0.000000 1.000000 
5591.585898 -708.228130 -10.913940 7128704.000000 7.000000 1.000000 -726787.375000 0.000000 1.000000 
3101.969687 -912.456890 44.833252 6741159.000000 6.000000 3.000000 -726831.562500 0.000000 1.000000 
-3942.297158 -1470.051998 40.777710 4063822.000000 5.000000 3.000000 -727000.937500 0.000000 1.000000 
5599.935508 -905.265605 -8.929932 1797008.000000 1.000000 1.000000 -727215.687500 1.000000 1.000000 
5132.805625 -278.841411 43.893433 4140546.000000 3.000000 1.000000 -726998.250000 0.000000 1.000000 
3103.011680 -1065.563518 17.892456 6940660.000000 6.000000 6.000000 -726807.500000 0.000000 1.000000 
5861.091758 -860.929302 -8.460205 1998396.000000 1.000000 1.000000 -727178.875000 0.000000 1.000000 
5141.038047 -762.722026 -10.811279 1388847.000000 1.000000 1.000000 -727306.812500 1.000000 1.000000 
-3370.477578 -280.002056 87.425049 4851712.000000 5.000000 1.000000 -726957.000000 0.000000 1.000000 
4916.325156 -862.477214 -8.318359 2391194.000000 1.000000 1.000000 -727124.312500 0.000000 1.000000 
3102.285117 -680.097209 50.755249 6341283.000000 1.000000 1.000000 -726867.750000 0.000000 1.000000 
5347.480430 -993.404277 -11.147705 1995730.000000 1.000000 1.000000 -727179.375000 1.000000 1.000000 
5456.979453 -899.118694 -9.326660 7129808.000000 7.000000 6.000000 -726787.125000 0.000000 1.000000 
4389.417930 -887.866191 -8.497437 5540007.000000 1.000000 1.000000 -726922.000000 0.000000 1.000000 
2098.246055 -277.606060 70.553589 10473739.000000 2.000000 1.000000 -726315.687500 0.000000 1.000000 
5153.928672 -766.159709 -10.724243 1389031.000000 1.000000 1.000000 -727306.750000 1.000000 1.000000 
2656.081016 -1463.719600 87.639771 5949824.000000 1.000000 1.000000 -726894.500000 0.000000 1.000000 
-4054.672891 -1464.397304 88.595337 4841452.000000 1.000000 1.000000 -726960.000000 0.000000 1.000000 
-2897.849160 -684.249797 89.967041 7180370.000000 4.000000 3.000000 -726777.187500 0.000000 1.000000 
-3233.741494 -1468.559597 40.210449 2126683.000000 7.000000 7.000000 -727158.875000 0.000000 1.000000 
-2833.276406 -1470.344905 41.616577 2918075.000000 7.000000 2.000000 -727080.625000 0.000000 1.000000 
-3996.983193 -1471.013103 70.001343 3113757.000000 7.000000 1.000000 -727066.500000 0.000000 1.000000 
5599.283164 -828.396099 -10.075806 5538256.000000 6.000000 6.000000 -726922.375000 0.000000 1.000000 
-3691.347207 -278.300884 42.980591 2131190.000000 5.000000 4.000000 -727157.750000 0.000000 1.000000 
5112.344687 -950.012676 -10.010742 1389216.000000 1.000000 1.000000 -727306.687500 1.000000 1.000000 
-4734.378701 -279.354229 88.033325 6408393.000000 6.000000 3.000000 -726863.750000 0.000000 1.000000 
5115.314414 -950.760906 -10.037354 1389262.000000 1.000000 1.000000 -727306.687500 1.000000 1.000000 
3601.052695 -279.853496 -1.687378 1772076.000000 1.000000 1.000000 -727220.000000 1.000000 1.000000 
2077.643516 -279.141582 87.912842 1956720.000000 1.000000 1.000000 -727183.687500 3.000000 1.000000 
5176.442344 -772.368999 -10.568848 1389353.000000 1.000000 1.000000 -727306.625000 1.000000 1.000000 
4198.549766 -1466.921901 9.959473 5544331.000000 2.000000 1.000000 -726921.250000 0.000000 1.000000 
5332.830039 -276.414531 89.702759 1389396.000000 1.000000 1.000000 -727306.625000 0.000000 1.000000 
5179.653281 -773.276592 -10.546021 1389399.000000 1.000000 1.000000 -727306.625000 1.000000 1.000000 
5296.609336 -780.094890 -10.471802 2592167.000000 1.000000 1.000000 -727105.125000 0.000000 1.000000 
-3458.282266 -273.829448 88.266846 5627502.000000 1.000000 1.000000 -726918.375000 0.000000 1.000000 
4767.164023 -273.145244 85.775391 7914252.000000 5.000000 3.000000 -726655.625000 0.000000 1.000000 
-2897.880898 -891.502483 126.954834 6788447.000000 5.000000 2.000000 -726827.750000 0.000000 1.000000 
5341.085898 -277.472881 89.194824 1389488.000000 1.000000 1.000000 -727306.625000 1.000000 1.000000 
4806.036094 -777.871318 -9.394653 3943391.000000 4.000000 1.000000 -727010.000000 0.000000 1.000000 
5130.134727 -954.626384 -10.131958 1389492.000000 1.000000 1.000000 -727306.625000 1.000000 1.000000 
3101.535117 -1029.076213 53.854858 1763477.000000 4.000000 4.000000 -727221.437500 0.000000 1.000000 
5632.972617 -933.264385 -9.447388 5339674.000000 4.000000 2.000000 -726932.375000 0.000000 1.000000 
5734.985312 -719.053020 -11.998779 1996556.000000 1.000000 1.000000 -727179.250000 0.000000 1.000000 
3102.998008 -1033.121685 38.539551 6940522.000000 5.000000 5.000000 -726807.500000 0.000000 1.000000 
4334.275352 -877.970378 -8.245239 1782383.000000 1.000000 1.000000 -727218.437500 2.000000 1.000000 
4209.054648 -871.266399 -7.900513 6736189.000000 2.000000 1.000000 -726832.437500 0.000000 1.000000 
4302.913047 -280.325054 7.442017 2981788.000000 3.000000 3.000000 -727077.125000 0.000000 1.000000 
5195.689414 -777.895122 -10.427002 1389629.000000 1.000000 1.000000 -727306.562500 1.000000 1.000000 
304.397910 -273.951274 50.087891 7738758.000000 2.000000 2.000000 -726684.875000 0.000000 1.000000 
4036.791953 -279.140850 42.972778 2179501.000000 1.000000 1.000000 -727150.687500 3.000000 1.000000 
4791.117148 -851.252727 -8.817993 3385068.000000 2.000000 2.000000 -727048.812500 0.000000 1.000000 
5141.974570 -957.797710 -10.209595 1389676.000000 1.000000 1.000000 -727306.562500 1.000000 1.000000 
5408.442344 -795.362712 -10.095947 4143812.000000 5.000000 4.000000 -726997.687500 0.000000 1.000000 
5536.358359 -922.903972 -8.260376 4343774.000000 5.000000 1.000000 -726986.562500 0.000000 1.000000 
1109.264609 -274.527446 82.332031 9101005.000000 5.000000 2.000000 -726476.625000 0.000000 1.000000 
5366.210898 -279.714092 87.149658 1389764.000000 1.000000 1.000000 -727306.562500 5.000000 1.000000 
5205.295859 -780.723674 -10.356201 1389767.000000 1.000000 1.000000 -727306.562500 1.000000 1.000000 
-2066.617715 -280.725444 83.858398 3325131.000000 1.000000 1.000000 -727050.125000 0.000000 1.000000 
1702.830039 -1462.915706 40.332275 6950275.000000 1.000000 1.000000 -726806.312500 0.000000 1.000000 
-1696.066934 -279.233501 20.462036 3526659.000000 1.000000 1.000000 -727036.750000 0.000000 1.000000 
5150.847617 -960.214519 -10.274170 1389814.000000 1.000000 1.000000 -727306.500000 1.000000 1.000000 
-5540.685464 -273.405742 43.966675 7780299.000000 3.000000 1.000000 -726676.000000 0.000000 1.000000 
5219.876914 -958.581096 -10.525024 4742135.000000 3.000000 3.000000 -726965.062500 0.000000 1.000000 
5205.896445 -274.292095 89.044678 4339726.000000 4.000000 3.000000 -726987.375000 0.000000 1.000000 
2998.826133 -1467.227001 21.447510 5748252.000000 2.000000 2.000000 -726906.875000 0.000000 1.000000 
5214.893516 -783.589275 -10.289673 1389905.000000 1.000000 1.000000 -727306.500000 1.000000 1.000000 
5156.754844 -961.858074 -10.310547 1389906.000000 1.000000 1.000000 -727306.500000 1.000000 1.000000 
4917.919883 -1462.480800 87.782349 3947577.000000 6.000000 2.000000 -727009.062500 0.000000 1.000000 
5218.089805 -784.556804 -10.265747 1389951.000000 1.000000 1.000000 -727306.500000 1.000000 1.000000 
5509.623008 -905.774883 -8.780029 5737896.000000 6.000000 3.000000 -726908.562500 0.000000 1.000000 
5602.958945 -1025.006694 -11.474365 6335251.000000 6.000000 2.000000 -726868.875000 0.000000 1.000000 
5463.118125 -891.540813 -9.683228 7129762.000000 7.000000 7.000000 -726787.187500 0.000000 1.000000 
4839.329062 -862.789104 -7.272705 3943943.000000 4.000000 1.000000 -727009.937500 0.000000 1.000000 
5392.173789 -279.743022 83.928101 1390040.000000 1.000000 1.000000 -727306.437500 1.000000 1.000000 
-4524.666543 -273.138042 41.255859 6212940.000000 6.000000 2.000000 -726878.500000 0.000000 1.000000 
5165.613242 -964.341594 -10.375854 1390044.000000 1.000000 1.000000 -727306.437500 1.000000 1.000000 
3700.286094 -1469.602504 12.224609 3583929.000000 1.000000 1.000000 -727035.250000 0.000000 1.000000 
4582.551719 -1469.539806 87.990601 5344046.000000 4.000000 3.000000 -726931.250000 0.000000 1.000000 
5258.248984 -973.584270 -11.047852 6136808.000000 5.000000 5.000000 -726882.875000 0.000000 1.000000 
3101.709922 -685.457378 31.381592 7137724.000000 6.000000 2.000000 -726785.625000 0.000000 1.000000 
5000.735312 -1469.626201 54.358032 1390093.000000 1.000000 1.000000 -727306.437500 7.000000 1.000000 
5400.540977 -280.712749 83.287842 1390132.000000 1.000000 1.000000 -727306.437500 1.000000 1.000000 
3659.200156 -275.067607 87.680908 7720913.000000 2.000000 2.000000 -726688.500000 0.000000 1.000000 
5571.594687 -738.843792 -11.236938 3386722.000000 4.000000 2.000000 -727048.500000 0.000000 1.000000 
5003.100547 -1469.758602 53.904541 1390139.000000 1.000000 1.000000 -727306.375000 4.000000 1.000000 
3798.429648 -276.635845 49.218750 7524493.000000 1.000000 1.000000 -726721.875000 0.000000 1.000000 
3101.440391 -695.257488 23.307251 1966890.000000 7.000000 7.000000 -727182.625000 0.000000 1.000000 
5501.210898 -835.069805 -8.846680 7129440.000000 7.000000 4.000000 -726787.250000 0.000000 1.000000 
5237.232383 -790.480205 -10.112549 1390227.000000 1.000000 1.000000 -727306.375000 1.000000 1.000000 
4088.883750 -278.180156 43.809692 5135990.000000 2.000000 1.000000 -726945.875000 0.000000 1.000000 
1570.619102 -274.342144 36.735962 9492098.000000 5.000000 1.000000 -726425.437500 0.000000 1.000000 
4803.643516 -280.138652 33.309448 3381801.000000 3.000000 3.000000 -727049.187500 0.000000 1.000000 
4698.235312 -276.609233 -5.989258 2185756.000000 1.000000 1.000000 -727150.187500 0.000000 1.000000 
5183.299766 -969.440593 -10.499878 1390320.000000 1.000000 1.000000 -727306.312500 1.000000 1.000000 
5246.788047 -793.499614 -10.040649 1390365.000000 1.000000 1.000000 -727306.312500 1.000000 1.000000 
-2416.485391 -279.974346 83.898315 1737842.000000 7.000000 5.000000 -727228.312500 0.000000 1.000000 
1421.134727 -273.485454 84.431641 8316658.000000 1.000000 1.000000 -726590.812500 0.000000 1.000000 
-3416.490518 -274.546245 82.873413 9905450.000000 1.000000 1.000000 -726374.062500 1.000000 1.000000 
5253.151328 -795.540630 -9.990356 1390457.000000 1.000000 1.000000 -727306.250000 1.000000 1.000000 
5065.213828 -280.117656 39.240112 1988690.000000 2.000000 2.000000 -727180.437500 0.000000 1.000000 
4698.549766 -876.449321 -8.218872 2589409.000000 1.000000 1.000000 -727105.437500 0.000000 1.000000 
5485.510703 -1018.506328 -11.873413 5738540.000000 6.000000 4.000000 -726908.375000 0.000000 1.000000 
5843.656211 -950.511394 -8.882690 3946333.000000 6.000000 1.000000 -727009.312500 0.000000 1.000000 
-381.929238 -1468.405605 88.602783 1933946.000000 2.000000 1.000000 -727189.687500 0.000000 1.000000 
4729.975547 -1465.460903 44.025757 6339576.000000 2.000000 1.000000 -726868.000000 0.000000 1.000000 
2996.553672 -277.280376 89.150635 6338846.000000 1.000000 1.000000 -726868.125000 0.000000 1.000000 
-4868.577920 -276.140117 81.609619 10694120.000000 2.000000 1.000000 -726293.125000 0.000000 1.000000 
4660.155234 -873.863506 -8.226440 6336771.000000 4.000000 3.000000 -726868.625000 0.000000 1.000000 
4371.636680 -1464.952098 88.387207 4545533.000000 3.000000 3.000000 -726975.437500 0.000000 1.000000 
5203.889609 -975.587627 -10.649658 1390642.000000 1.000000 1.000000 -727306.250000 1.000000 1.000000 
-3882.842080 -273.156841 86.450928 6016798.000000 4.000000 2.000000 -726892.125000 0.000000 1.000000 
5646.654258 -930.665386 -8.453735 4742180.000000 5.000000 1.000000 -726965.062500 0.000000 1.000000 
-4729.703896 -274.778667 87.845093 3514094.000000 4.000000 4.000000 -727038.000000 0.000000 1.000000 
-2897.903359 -776.054302 27.340820 6204066.000000 2.000000 1.000000 -726880.562500 0.000000 1.000000 
-2898.009316 -707.031108 98.313843 7180278.000000 2.000000 2.000000 -726777.250000 0.000000 1.000000 
-5466.630776 -273.126323 86.649658 8757567.000000 1.000000 1.000000 -726521.562500 0.000000 1.000000 
5466.289023 -881.874980 -7.871826 7129716.000000 7.000000 3.000000 -726787.187500 0.000000 1.000000 
5705.040000 -798.638530 -9.465210 3585349.000000 5.000000 2.000000 -727034.937500 0.000000 1.000000 
5746.968711 -856.816570 -8.566650 2196979.000000 1.000000 1.000000 -727148.687500 0.000000 1.000000 
-3705.613076 -280.121196 86.216309 4072469.000000 2.000000 2.000000 -726999.375000 0.000000 1.000000 
5482.836875 -275.976055 44.478027 2191596.000000 1.000000 1.000000 -727149.500000 0.000000 1.000000 
-3189.843545 -279.404155 41.711060 2527760.000000 4.000000 3.000000 -727109.062500 0.000000 1.000000 
-2656.440469 -276.564678 36.788574 7375773.000000 2.000000 2.000000 -726744.875000 0.000000 1.000000 
-1499.268594 -280.953594 77.745850 2334239.000000 1.000000 1.000000 -727129.062500 0.000000 1.000000 
-2897.064492 -960.606121 25.424194 6592764.000000 4.000000 1.000000 -726847.625000 0.000000 1.000000 
5783.088828 -275.563091 44.453979 2789965.000000 3.000000 1.000000 -727090.250000 0.000000 1.000000 
5271.635703 -271.874858 86.002563 6928973.000000 7.000000 1.000000 -726809.562500 0.000000 1.000000 
5445.508750 -921.700786 -9.176758 4144548.000000 5.000000 3.000000 -726997.500000 0.000000 1.000000 
2755.805625 -280.333354 86.120361 3769722.000000 2.000000 1.000000 -727021.750000 0.000000 1.000000 
3101.485312 -815.137920 22.307251 1764488.000000 6.000000 6.000000 -727221.250000 0.000000 1.000000 
4373.631797 -271.862163 85.122070 9290711.000000 6.000000 2.000000 -726451.375000 0.000000 1.000000 
5614.517539 -730.845378 -10.487671 5537704.000000 5.000000 1.000000 -726922.500000 0.000000 1.000000 
5291.202109 -808.214885 -9.673706 1391009.000000 1.000000 1.000000 -727306.125000 1.000000 1.000000 
2231.628867 -276.896465 44.173950 2159031.000000 1.000000 1.000000 -727152.125000 1.000000 1.000000 
