ply
format ascii 1.0
comment Created by CloudCompare v2.12 alpha
comment Created 6/6/2021 12:25 AM
obj_info Generated by CloudCompare!
element vertex 501
property double x
property double y
property double z
property float scalar_fullwaveIndex
property float scalar_NumberOfReturns
property float scalar_ReturnNumber
property float scalar_GpsTime
property float scalar_Intensity
end_header
3183.707969 -1214.234508 -1000.066803 1359552.000000 1.000000 1.000000 -727315.250000 1.000000 
-2950.430215 -873.210186 -452.151611 9125984.000000 6.000000 5.000000 -726471.875000 0.000000 
3188.210898 -811.865581 -108.212158 165228.000000 7.000000 3.000000 -727583.687500 0.000000 
-2956.001992 -832.603008 -900.796204 9320337.000000 5.000000 5.000000 -726446.312500 0.000000 
2802.639609 -1009.591106 -1133.330799 6941998.000000 7.000000 6.000000 -726807.312500 0.000000 
3102.998008 -1153.742900 -109.171021 7726480.000000 7.000000 1.000000 -726687.687500 0.000000 
-2937.281289 -1420.899303 -1105.600300 3116109.000000 7.000000 7.000000 -727065.937500 0.000000 
-2842.452188 -651.425273 -559.341614 6984731.000000 7.000000 1.000000 -726802.750000 0.000000 
-2953.968301 -1003.813274 -744.832397 8931774.000000 7.000000 7.000000 -726498.687500 0.000000 
-2844.192422 -792.829875 -520.223083 7374811.000000 3.000000 3.000000 -726745.062500 0.000000 
3158.750937 -793.312419 -742.487793 165232.000000 1.000000 1.000000 -727583.687500 1.000000 
-2955.753457 -648.967998 -817.103088 10879921.000000 2.000000 1.000000 -726271.125000 0.000000 
-3197.998086 -367.285259 -1057.499702 9709728.000000 5.000000 3.000000 -726396.687500 0.000000 
3107.487266 -625.566143 -551.677673 10276861.000000 6.000000 1.000000 -726334.750000 0.000000 
3192.751914 -807.555095 -108.423828 165274.000000 7.000000 2.000000 -727583.687500 0.000000 
3047.872031 -632.802715 -547.640198 7137772.000000 7.000000 5.000000 -726785.625000 0.000000 
3050.300742 -887.873210 -347.661682 9294898.000000 1.000000 1.000000 -726450.937500 0.000000 
3057.833945 -621.990337 -895.104202 10670346.000000 6.000000 2.000000 -726296.937500 0.000000 
3188.785117 -805.095012 -107.594116 165274.000000 7.000000 6.000000 -727583.687500 0.000000 
-2840.408242 -712.876384 -749.524292 7959426.000000 5.000000 1.000000 -726645.375000 0.000000 
-2597.251992 -951.046428 -1046.115402 7957082.000000 5.000000 1.000000 -726645.812500 0.000000 
-2881.189492 -831.448528 -148.374207 8348306.000000 5.000000 5.000000 -726584.375000 1.000000 
-2885.808145 -635.167461 -108.719238 7765394.000000 7.000000 1.000000 -726679.062500 0.000000 
-2842.802773 -822.604290 -583.377686 7959149.000000 5.000000 2.000000 -726645.437500 0.000000 
-3089.500527 -1397.836406 -999.560898 2720184.000000 4.000000 2.000000 -727094.687500 0.000000 
-2817.788125 -1405.563594 -998.719894 1534846.000000 7.000000 1.000000 -727272.875000 0.000000 
-2635.584023 -654.553691 -1001.235703 1538204.000000 7.000000 7.000000 -727272.187500 0.000000 
-2918.556680 -623.305645 -861.932312 10293283.000000 1.000000 1.000000 -726332.250000 1.000000 
-2846.159707 -1000.357708 -313.888916 7374074.000000 3.000000 1.000000 -726745.187500 0.000000 
3194.268516 -801.368206 -108.001099 165320.000000 7.000000 4.000000 -727583.687500 0.000000 
-3056.216592 -1284.289501 -1000.120407 2720874.000000 5.000000 3.000000 -727094.437500 0.000000 
-2901.972695 -629.534893 -363.905090 7375776.000000 1.000000 1.000000 -726744.875000 1.000000 
-2700.999063 -878.350627 -1001.238007 1537192.000000 7.000000 7.000000 -727272.375000 0.000000 
-2844.237832 -757.759319 -470.464783 8348124.000000 5.000000 2.000000 -726584.437500 0.000000 
-3017.405313 -321.602764 -1053.126801 7767470.000000 1.000000 1.000000 -726678.625000 2.000000 
-2839.276895 -690.753093 -892.647614 7764893.000000 5.000000 3.000000 -726679.125000 0.000000 
3158.751914 -778.925579 -742.132813 165324.000000 1.000000 1.000000 -727583.687500 1.000000 
-3198.755654 -1293.994213 -1019.731598 10492510.000000 4.000000 1.000000 -726312.312500 0.000000 
-2629.202676 -645.541973 -999.979599 1538250.000000 7.000000 4.000000 -727272.125000 0.000000 
3201.319297 -798.629497 -108.735962 165366.000000 7.000000 1.000000 -727583.687500 0.000000 
3199.820273 -797.693706 -108.421753 165366.000000 7.000000 2.000000 -727583.687500 0.000000 
-2882.681191 -593.536357 -108.490234 10488273.000000 7.000000 2.000000 -726313.062500 0.000000 
-2891.075234 -1421.439601 -1071.866501 2324949.000000 7.000000 6.000000 -727131.500000 0.000000 
-2598.293008 -1226.211711 -1091.704201 7176790.000000 3.000000 3.000000 -726777.937500 0.000000 
3195.863242 -795.223674 -107.592651 165366.000000 7.000000 6.000000 -727583.687500 0.000000 
-2597.568887 -1199.166515 -1037.400803 7761858.000000 5.000000 2.000000 -726679.687500 0.000000 
-2603.988809 -321.768169 -1015.588699 10877116.000000 3.000000 3.000000 -726271.687500 0.000000 
3154.767539 -769.397319 -422.851074 165368.000000 1.000000 1.000000 -727583.687500 1.000000 
3156.714805 -770.526592 -582.864990 165369.000000 1.000000 1.000000 -727583.687500 1.000000 
-3197.207070 -1412.476497 -1026.082703 10102430.000000 5.000000 5.000000 -726351.750000 0.000000 
-2843.355020 -1018.672283 -539.562378 7763925.000000 5.000000 2.000000 -726679.250000 0.000000 
3102.125937 -702.728313 -121.253540 10670528.000000 1.000000 1.000000 -726296.937500 0.000000 
3204.871055 -793.715801 -108.737061 165412.000000 7.000000 1.000000 -727583.687500 0.000000 
3203.374961 -792.778484 -108.423096 165412.000000 7.000000 2.000000 -727583.687500 0.000000 
-2695.205117 -321.587261 -1052.653801 7570590.000000 1.000000 1.000000 -726711.062500 2.000000 
-2597.168496 -1408.310298 -1035.028000 7956208.000000 5.000000 1.000000 -726646.062500 0.000000 
-2839.593301 -860.480327 -898.068695 8153547.000000 5.000000 4.000000 -726614.375000 0.000000 
-3197.988564 -685.949626 -1046.473099 9905320.000000 4.000000 3.000000 -726374.125000 0.000000 
-2953.348672 -1066.324871 -654.004608 10295168.000000 3.000000 3.000000 -726332.000000 0.000000 
3157.236289 -683.012126 -622.849304 1162572.000000 1.000000 1.000000 -727363.437500 0.000000 
-2948.416055 -934.322979 -108.408325 9320470.000000 7.000000 2.000000 -726446.312500 0.000000 
-2768.468789 -1167.264690 -999.257599 1535904.000000 7.000000 2.000000 -727272.687500 0.000000 
-3006.890420 -498.922344 -108.357666 8737971.000000 6.000000 2.000000 -726526.187500 0.000000 
3160.736289 -765.643901 -900.529297 165417.000000 1.000000 1.000000 -727583.687500 1.000000 
3401.998008 -916.695171 -1045.055199 165418.000000 1.000000 1.000000 -727583.687500 2.000000 
-2952.190957 -666.230510 -588.092285 9708897.000000 5.000000 5.000000 -726396.750000 0.000000 
3206.917930 -787.857585 -108.420410 165458.000000 7.000000 2.000000 -727583.687500 0.000000 
-2847.613809 -737.664409 -253.601196 7764797.000000 4.000000 4.000000 -726679.125000 0.000000 
3204.925742 -786.605388 -108.001953 165458.000000 7.000000 4.000000 -727583.687500 0.000000 
3203.926719 -785.978130 -107.792358 165458.000000 7.000000 5.000000 -727583.687500 0.000000 
2802.297812 -995.382427 -1016.631805 7531444.000000 2.000000 2.000000 -726720.750000 0.000000 
2979.912070 -1407.190807 -1000.024094 1355550.000000 1.000000 1.000000 -727316.562500 2.000000 
3152.694297 -753.699810 -260.205688 165459.000000 1.000000 1.000000 -727583.687500 1.000000 
3154.714805 -754.883098 -421.915771 165460.000000 1.000000 1.000000 -727583.687500 1.000000 
-2986.501504 -527.827373 -107.244507 9903336.000000 7.000000 7.000000 -726374.437500 0.000000 
2981.064414 -906.771526 -109.169556 7921796.000000 7.000000 1.000000 -726654.562500 0.000000 
-2953.856484 -936.922527 -730.348785 9515054.000000 5.000000 5.000000 -726421.437500 0.000000 
-2655.526406 -321.605937 -1053.150002 7570314.000000 1.000000 1.000000 -726711.062500 2.000000 
-2926.724648 -626.069683 -633.911804 8348999.000000 1.000000 1.000000 -726584.312500 4.000000 
3161.669883 -652.735210 -974.904602 962747.000000 1.000000 1.000000 -727417.250000 0.000000 
-2953.656289 -833.127971 -651.544098 10489610.000000 2.000000 1.000000 -726312.812500 0.000000 
2801.969687 -503.061260 -1031.918602 7333966.000000 2.000000 1.000000 -726754.187500 0.000000 
-3089.321328 -321.557598 -1048.586899 10097968.000000 1.000000 1.000000 -726352.562500 1.000000 
-2843.642129 -994.027812 -575.295410 8153315.000000 5.000000 4.000000 -726614.437500 0.000000 
3205.092734 -779.553630 -107.288086 165504.000000 7.000000 7.000000 -727583.625000 0.000000 
2979.152305 -928.306499 -106.840698 7921888.000000 7.000000 7.000000 -726654.562500 0.000000 
3046.678672 -700.949810 -646.084686 7333642.000000 2.000000 2.000000 -726754.250000 0.000000 
3359.645469 -321.057476 -1004.320007 7918074.000000 5.000000 2.000000 -726655.062500 0.000000 
3153.839805 -629.351055 -302.921692 8116055.000000 1.000000 1.000000 -726622.562500 0.000000 
3401.935508 -788.546672 -1126.476601 963715.000000 1.000000 1.000000 -727416.812500 0.000000 
-2930.871133 -929.956584 -108.410156 9320332.000000 7.000000 2.000000 -726446.312500 0.000000 
-2948.403848 -1092.787822 -234.813416 10490574.000000 1.000000 1.000000 -726312.687500 0.000000 
-3033.517861 -1020.326030 -108.721191 8543622.000000 7.000000 1.000000 -726555.625000 0.000000 
3213.058555 -777.422100 -108.211792 165550.000000 7.000000 3.000000 -727583.625000 0.000000 
-2871.591836 -1121.853374 -957.025101 1931139.000000 7.000000 3.000000 -727190.375000 0.000000 
-2606.929727 -321.516338 -1064.717400 8928188.000000 1.000000 1.000000 -726499.250000 5.000000 
2801.995078 -933.436077 -1065.142601 6941676.000000 7.000000 4.000000 -726807.312500 0.000000 
3208.664023 -774.643108 -107.287598 165550.000000 7.000000 7.000000 -727583.625000 0.000000 
-2817.680215 -650.637187 -192.404602 9124602.000000 7.000000 6.000000 -726472.062500 0.000000 
-2597.189004 -1275.138988 -1028.451698 7371778.000000 5.000000 1.000000 -726745.687500 0.000000 
-3016.463662 -321.591289 -1047.556396 10097508.000000 1.000000 1.000000 -726352.625000 1.000000 
2801.974570 -896.815410 -1012.379303 7726668.000000 2.000000 1.000000 -726687.625000 0.000000 
3051.780234 -682.270610 -227.164001 10080440.000000 1.000000 1.000000 -726355.312500 0.000000 
3401.961875 -896.408611 -1045.337700 165556.000000 1.000000 1.000000 -727583.625000 2.000000 
3168.486289 -981.550823 -1000.168701 960402.000000 1.000000 1.000000 -727417.875000 0.000000 
3102.130820 -913.308208 -113.247314 10671126.000000 1.000000 1.000000 -726296.875000 0.000000 
-2954.424844 -1106.601604 -686.880188 9905088.000000 5.000000 2.000000 -726374.125000 0.000000 
-2953.122109 -941.275493 -584.671997 9320519.000000 5.000000 2.000000 -726446.312500 0.000000 
-2949.971719 -761.398784 -306.340881 9320149.000000 5.000000 1.000000 -726446.375000 0.000000 
-3198.319375 -881.302593 -1045.477898 9711246.000000 5.000000 2.000000 -726396.375000 0.000000 
3212.254844 -769.745525 -107.289429 165596.000000 7.000000 7.000000 -727583.625000 0.000000 
2802.245078 -653.068401 -1029.047302 7334610.000000 2.000000 2.000000 -726754.125000 0.000000 
3154.696250 -733.051494 -420.507874 165598.000000 1.000000 1.000000 -727583.625000 1.000000 
-2865.238320 -626.317241 -611.484314 10879460.000000 2.000000 1.000000 -726271.187500 0.000000 
-2598.155313 -1046.070415 -1143.302700 1931876.000000 1.000000 1.000000 -727190.187500 0.000000 
-2953.818887 -666.409771 -687.033691 10293650.000000 2.000000 2.000000 -726332.187500 0.000000 
-2824.289590 -1355.666912 -1001.363007 1140117.000000 7.000000 7.000000 -727370.625000 0.000000 
-2597.223184 -982.316875 -1034.951401 7372698.000000 5.000000 1.000000 -726745.500000 0.000000 
-3102.336221 -499.616558 -108.359253 8932781.000000 5.000000 2.000000 -726498.500000 0.000000 
-2799.261270 -1218.254894 -1001.377304 1140669.000000 7.000000 7.000000 -727370.437500 0.000000 
-2745.876992 -1003.816997 -999.190308 1141543.000000 7.000000 3.000000 -727370.250000 0.000000 
-2940.975625 -1117.214580 -763.405914 2128710.000000 7.000000 7.000000 -727158.375000 0.000000 
3217.276328 -765.760784 -107.591553 165642.000000 7.000000 6.000000 -727583.625000 0.000000 
3215.835898 -764.844402 -107.288086 165642.000000 7.000000 7.000000 -727583.625000 0.000000 
-2839.858926 -773.626506 -866.133514 7374859.000000 3.000000 3.000000 -726745.062500 0.000000 
3154.690391 -725.747478 -420.035278 165644.000000 1.000000 1.000000 -727583.625000 1.000000 
2801.971641 -485.375469 -1026.103996 7529328.000000 2.000000 1.000000 -726721.062500 0.000000 
-2954.645059 -1084.150005 -703.829193 9710140.000000 5.000000 2.000000 -726396.562500 0.000000 
3401.867148 -505.999980 -1079.366096 1165887.000000 1.000000 1.000000 -727362.375000 0.000000 
-2953.551797 -914.479473 -666.675201 10294616.000000 2.000000 2.000000 -726332.062500 0.000000 
3045.877891 -985.082622 -685.181610 8902473.000000 2.000000 1.000000 -726504.250000 0.000000 
-2951.526895 -667.501506 -431.838989 9708896.000000 5.000000 1.000000 -726396.750000 0.000000 
-2976.887734 -321.532573 -1063.608498 8350014.000000 1.000000 1.000000 -726584.062500 5.000000 
-2768.584512 -321.611187 -1053.813698 9706370.000000 1.000000 1.000000 -726397.187500 2.000000 
-2690.907754 -1090.402996 -1000.501099 2326973.000000 4.000000 3.000000 -727130.937500 0.000000 
3047.850547 -1044.260173 -544.408203 10278195.000000 1.000000 1.000000 -726334.625000 0.000000 
-2840.587441 -707.902874 -736.004486 7764846.000000 5.000000 1.000000 -726679.125000 0.000000 
-2777.289102 -1103.872112 -1001.575302 1141129.000000 7.000000 7.000000 -727370.312500 0.000000 
-2898.323770 -911.580730 -110.913696 9320056.000000 5.000000 2.000000 -726446.375000 0.000000 
-2785.755410 -1217.444194 -1001.367004 1535674.000000 7.000000 7.000000 -727272.687500 0.000000 
3112.341758 -1114.773723 -466.729187 1158938.000000 1.000000 1.000000 -727364.562500 1.000000 
-2844.020547 -842.875530 -539.691406 7569621.000000 3.000000 3.000000 -726711.187500 0.000000 
-3110.271523 -1184.143108 -999.347794 2523532.000000 4.000000 2.000000 -727110.312500 0.000000 
3124.213828 -623.166851 -926.920700 9883516.000000 6.000000 4.000000 -726377.625000 0.000000 
-2965.624551 -940.063213 -108.023315 9320608.000000 7.000000 4.000000 -726446.312500 0.000000 
-3197.642129 -459.537212 -1060.690903 9321580.000000 5.000000 4.000000 -726446.062500 0.000000 
-2861.830605 -626.723613 -588.132996 7765259.000000 1.000000 1.000000 -726679.062500 2.000000 
-2926.883340 -1043.281292 -108.720581 8931586.000000 7.000000 1.000000 -726498.750000 0.000000 
3224.477500 -755.993511 -107.593018 165734.000000 7.000000 6.000000 -727583.625000 0.000000 
3223.031211 -755.067302 -107.287842 165734.000000 7.000000 7.000000 -727583.625000 0.000000 
3152.712852 -709.927593 -256.500488 165735.000000 1.000000 1.000000 -727583.625000 1.000000 
3052.037070 -909.834270 -210.541199 8509677.000000 1.000000 1.000000 -726562.687500 0.000000 
3161.077109 -778.023906 -931.089706 961873.000000 1.000000 1.000000 -727417.500000 1.000000 
3158.693320 -713.498210 -740.513397 165738.000000 1.000000 1.000000 -727583.625000 1.000000 
3160.695273 -714.693584 -900.278198 165739.000000 1.000000 1.000000 -727583.625000 1.000000 
3401.964805 -869.219280 -1045.722000 165740.000000 1.000000 1.000000 -727583.625000 2.000000 
3307.237266 -515.675640 -109.169556 7919082.000000 7.000000 1.000000 -726654.937500 0.000000 
-3197.752236 -500.864727 -1035.834602 10489474.000000 2.000000 2.000000 -726312.875000 0.000000 
-3050.040078 -500.802715 -107.367310 8932321.000000 5.000000 5.000000 -726498.625000 0.000000 
2824.144492 -321.094219 -1015.049103 7919868.000000 3.000000 1.000000 -726654.750000 0.000000 
3229.173789 -751.816509 -107.823242 165780.000000 7.000000 5.000000 -727583.562500 0.000000 
3280.713828 -571.484844 -106.841187 7919404.000000 7.000000 7.000000 -726654.875000 0.000000 
-3162.887490 -1329.625194 -1000.226196 3314185.000000 1.000000 1.000000 -727051.750000 0.000000 
-2957.379434 -943.191082 -898.479706 9126125.000000 6.000000 1.000000 -726471.812500 0.000000 
3152.651328 -702.544109 -255.864380 165781.000000 1.000000 1.000000 -727583.562500 1.000000 
2883.514609 -321.472759 -1020.844299 7723862.000000 2.000000 1.000000 -726688.000000 0.000000 
3156.741172 -704.997783 -579.944214 165783.000000 1.000000 1.000000 -727583.562500 1.000000 
-3193.428018 -1060.994915 -999.925797 2326282.000000 6.000000 3.000000 -727131.125000 0.000000 
3160.696250 -707.365886 -900.242996 165785.000000 1.000000 1.000000 -727583.562500 1.000000 
-3198.703408 -996.269084 -1035.430603 10101188.000000 4.000000 1.000000 -726352.000000 0.000000 
-2896.497598 -321.501567 -1064.387100 9124700.000000 1.000000 1.000000 -726472.062500 5.000000 
-2831.728555 -1236.721508 -1000.513397 2128297.000000 7.000000 6.000000 -727158.500000 0.000000 
-3178.407510 -1420.457805 -1070.485298 2719908.000000 7.000000 7.000000 -727094.750000 0.000000 
-2597.619180 -529.125713 -1049.262100 7569118.000000 4.000000 2.000000 -726711.250000 0.000000 
-2949.401895 -683.364299 -331.519104 10293694.000000 2.000000 2.000000 -726332.187500 0.000000 
3231.695273 -746.243572 -107.592407 165826.000000 7.000000 6.000000 -727583.562500 0.000000 
-2955.925820 -1030.658184 -893.026306 9126217.000000 6.000000 5.000000 -726471.812500 0.000000 
-2783.479043 -1150.262798 -1000.794800 1140945.000000 7.000000 7.000000 -727370.375000 0.000000 
3154.731406 -696.439617 -418.136414 165828.000000 1.000000 1.000000 -727583.562500 1.000000 
3156.739219 -697.647075 -579.614197 165829.000000 1.000000 1.000000 -727583.562500 1.000000 
3157.119102 -703.596599 -614.207581 1162434.000000 1.000000 1.000000 -727363.500000 0.000000 
-2808.672891 -660.061077 -174.853271 8153726.000000 5.000000 5.000000 -726614.375000 0.000000 
-2948.366738 -709.249980 -230.436707 9903751.000000 3.000000 2.000000 -726374.375000 0.000000 
3060.578086 -1121.168315 -975.735001 1358999.000000 1.000000 1.000000 -727315.375000 0.000000 
-2903.899941 -624.319805 -776.322693 8348816.000000 1.000000 1.000000 -726584.312500 4.000000 
-2846.889688 -854.315471 -230.641785 7764429.000000 5.000000 1.000000 -726679.187500 0.000000 
3046.196250 -1089.371318 -681.554810 8902841.000000 1.000000 1.000000 -726504.187500 0.000000 
-2875.561074 -623.354961 -860.288208 10293053.000000 1.000000 1.000000 -726332.250000 1.000000 
-3123.906533 -321.604961 -1038.097801 10488278.000000 1.000000 1.000000 -726313.062500 1.000000 
3156.226523 -974.851970 -543.877075 1361158.000000 1.000000 1.000000 -727314.750000 0.000000 
-2636.407266 -321.522441 -1063.491997 8153042.000000 1.000000 1.000000 -726614.437500 5.000000 
3154.732383 -689.072917 -417.656494 165874.000000 1.000000 1.000000 -727583.562500 1.000000 
-2955.471230 -669.115398 -774.246002 9125756.000000 6.000000 2.000000 -726471.875000 0.000000 
-2951.540566 -755.652080 -459.662903 9320150.000000 5.000000 2.000000 -726446.375000 0.000000 
3160.700156 -692.671123 -900.173294 165877.000000 1.000000 1.000000 -727583.562500 1.000000 
-2597.297891 -645.025371 -1050.422501 7763330.000000 5.000000 1.000000 -726679.312500 0.000000 
-3017.010781 -965.321514 -107.823608 8349134.000000 7.000000 5.000000 -726584.250000 0.000000 
3337.698203 -399.323223 -1000.181793 1165886.000000 1.000000 1.000000 -727362.375000 0.000000 
-2597.931680 -346.970806 -1057.311798 7764296.000000 4.000000 3.000000 -726679.187500 0.000000 
3240.870078 -737.769817 -108.000732 165918.000000 7.000000 4.000000 -727583.562500 0.000000 
3102.747031 -1118.042583 -727.857300 1560849.000000 1.000000 1.000000 -727265.437500 1.000000 
3238.939414 -736.516399 -107.591431 165918.000000 7.000000 6.000000 -727583.562500 0.000000 
3237.501914 -735.583782 -107.286865 165918.000000 7.000000 7.000000 -727583.562500 0.000000 
3152.641562 -680.422771 -253.971008 165919.000000 1.000000 1.000000 -727583.562500 1.000000 
-2954.526895 -732.869426 -749.845001 9514548.000000 5.000000 4.000000 -726421.500000 0.000000 
-2953.014688 -684.881816 -604.497925 9514409.000000 5.000000 3.000000 -726421.500000 0.000000 
3150.640586 -630.252910 -221.325317 8508343.000000 7.000000 1.000000 -726562.812500 0.000000 
-3198.016885 -647.746929 -1027.195000 10685434.000000 2.000000 1.000000 -726294.750000 0.000000 
3102.113242 -729.316387 -187.355286 10277182.000000 1.000000 1.000000 -726334.750000 0.000000 
-3093.229531 -1413.189006 -999.001404 2720092.000000 3.000000 1.000000 -727094.687500 0.000000 
-2950.860391 -868.838420 -426.395203 10685201.000000 2.000000 1.000000 -726294.812500 0.000000 
3245.490195 -733.562725 -108.210327 165964.000000 7.000000 3.000000 -727583.562500 0.000000 
3050.593711 -721.097820 -323.751892 9490812.000000 1.000000 1.000000 -726425.562500 0.000000 
3045.515586 -637.707683 -699.061005 6740012.000000 5.000000 2.000000 -726831.750000 0.000000 
3260.831992 -588.914287 -107.712646 7919542.000000 7.000000 6.000000 -726654.875000 0.000000 
-2841.378457 -982.729229 -723.860596 7958736.000000 5.000000 3.000000 -726645.500000 0.000000 
2975.498008 -1411.895900 -1000.072296 1355458.000000 1.000000 1.000000 -727316.625000 1.000000 
-3198.719277 -796.452190 -1053.686302 9127874.000000 7.000000 1.000000 -726471.437500 0.000000 
3156.689414 -675.482585 -578.614502 165967.000000 1.000000 1.000000 -727583.562500 1.000000 
3158.697227 -676.702495 -739.600494 165968.000000 1.000000 1.000000 -727583.562500 1.000000 
2876.674766 -321.481548 -999.425797 8311650.000000 3.000000 2.000000 -726591.625000 0.000000 
-3020.077188 -321.486064 -1066.016602 8738162.000000 1.000000 1.000000 -726526.187500 5.000000 
3251.604453 -730.337383 -108.735962 166010.000000 7.000000 1.000000 -727583.500000 0.000000 
3250.119102 -729.367229 -108.420654 166010.000000 7.000000 2.000000 -727583.500000 0.000000 
-2843.965371 -1087.211895 -548.566406 7958505.000000 5.000000 4.000000 -726645.500000 0.000000 
-2931.320840 -626.425640 -611.119080 9514087.000000 1.000000 1.000000 -726421.562500 3.000000 
3247.204062 -727.462810 -107.801636 166010.000000 7.000000 5.000000 -727583.500000 0.000000 
-2845.250527 -726.166118 -442.024109 7959424.000000 5.000000 4.000000 -726645.375000 0.000000 
2952.065391 -735.949321 -1000.270996 6939974.000000 1.000000 1.000000 -726807.562500 0.000000 
-2938.644570 -624.729351 -745.700500 9708668.000000 1.000000 1.000000 -726396.812500 2.000000 
-3038.278604 -499.858623 -107.673218 8738247.000000 4.000000 3.000000 -726526.187500 0.000000 
-2951.728066 -807.558025 -523.375488 10099069.000000 3.000000 3.000000 -726352.375000 0.000000 
-2953.180703 -649.804424 -590.229797 9708851.000000 5.000000 2.000000 -726396.812500 0.000000 
-2950.258340 -911.224773 -445.472229 9126030.000000 6.000000 6.000000 -726471.875000 0.000000 
-2842.880898 -651.930217 -560.029419 6984731.000000 7.000000 2.000000 -726802.750000 0.000000 
-2897.662637 -699.231121 -135.245300 9514038.000000 5.000000 4.000000 -726421.562500 0.000000 
-2843.614785 -788.692607 -546.337830 7569805.000000 3.000000 2.000000 -726711.125000 0.000000 
3158.944297 -1014.074871 -758.885406 1160182.000000 1.000000 1.000000 -727364.187500 1.000000 
-2838.938516 -1029.295513 -863.551514 7568979.000000 5.000000 1.000000 -726711.250000 0.000000 
-2839.121133 -1046.799419 -874.892792 7178674.000000 3.000000 1.000000 -726777.500000 0.000000 
3043.114219 -844.240276 -926.395599 9884344.000000 1.000000 1.000000 -726377.562500 0.000000 
3401.948203 -755.893901 -1140.900900 963945.000000 1.000000 1.000000 -727416.750000 0.000000 
2926.902305 -1209.911296 -1000.101395 1356883.000000 1.000000 1.000000 -727316.062500 1.000000 
3152.613242 -658.164592 -252.053589 166057.000000 1.000000 1.000000 -727583.500000 1.000000 
-2953.898477 -652.256816 -108.845703 10488871.000000 7.000000 1.000000 -726312.937500 0.000000 
3096.319297 -1116.866619 -633.964417 1359411.000000 1.000000 1.000000 -727315.250000 1.000000 
3051.588828 -910.403728 -233.555115 7334468.000000 2.000000 1.000000 -726754.125000 0.000000 
-3015.340127 -974.459209 -107.788696 10295165.000000 7.000000 5.000000 -726332.000000 0.000000 
-2948.353555 -749.554912 -286.006592 9514545.000000 5.000000 5.000000 -726421.500000 0.000000 
-3066.447793 -1421.471294 -1110.428699 2127101.000000 7.000000 5.000000 -727158.812500 0.000000 
3257.408164 -719.698894 -108.419434 166102.000000 7.000000 2.000000 -727583.500000 0.000000 
3282.412070 -321.774150 -1020.098907 7526568.000000 2.000000 2.000000 -726721.562500 0.000000 
-2777.513223 -321.726543 -1025.725601 10682076.000000 2.000000 2.000000 -726295.312500 0.000000 
3280.365195 -1138.587200 -1000.020706 1361300.000000 1.000000 1.000000 -727314.750000 1.000000 
-2704.189980 -910.578716 -999.257507 1537054.000000 7.000000 2.000000 -727272.437500 0.000000 
3252.089805 -716.202922 -107.287964 166102.000000 7.000000 7.000000 -727583.500000 0.000000 
-2987.626016 -525.852642 -107.827881 9903336.000000 7.000000 5.000000 -726374.437500 0.000000 
3047.037070 -1036.381816 -620.330872 7334976.000000 2.000000 2.000000 -726754.062500 0.000000 
-3197.999795 -1010.314189 -1014.375397 10882406.000000 2.000000 1.000000 -726270.500000 0.000000 
2942.546836 -953.478618 -108.593140 7922118.000000 7.000000 3.000000 -726654.500000 0.000000 
3160.705039 -655.689128 -900.002701 166107.000000 1.000000 1.000000 -727583.500000 1.000000 
-2954.038613 -1039.510479 -656.289612 10295076.000000 3.000000 1.000000 -726332.000000 0.000000 
-2815.122109 -1384.485088 -999.256805 1534938.000000 7.000000 2.000000 -727272.875000 0.000000 
2984.864219 -347.258403 -1000.219894 7136808.000000 1.000000 1.000000 -726785.750000 0.000000 
3260.085898 -714.230083 -108.210938 166148.000000 7.000000 3.000000 -727583.500000 0.000000 
3259.103477 -713.582317 -108.001709 166148.000000 7.000000 4.000000 -727583.500000 0.000000 
-3198.315713 -644.044109 -1047.425003 9905182.000000 5.000000 2.000000 -726374.125000 0.000000 
-2928.493691 -822.977520 -108.021484 9514590.000000 7.000000 4.000000 -726421.500000 0.000000 
3402.118125 -727.826885 -1101.706699 1365485.000000 3.000000 1.000000 -727313.562500 0.000000 
2936.528281 -1383.490215 -999.961395 1155032.000000 1.000000 1.000000 -727365.937500 0.000000 
-2845.359902 -1111.417705 -377.429504 7958458.000000 3.000000 2.000000 -726645.500000 0.000000 
3156.675742 -645.769695 -577.270813 166151.000000 1.000000 1.000000 -727583.500000 1.000000 
-2822.723672 -619.446758 -191.916077 10097595.000000 7.000000 7.000000 -726352.625000 0.000000 
3160.708945 -648.252117 -899.969193 166153.000000 1.000000 1.000000 -727583.500000 1.000000 
-2844.528848 -690.885173 -447.947876 7959516.000000 5.000000 2.000000 -726645.375000 0.000000 
-2713.987832 -1422.183300 -1024.565102 2720737.000000 7.000000 3.000000 -727094.500000 0.000000 
-3197.970254 -698.812480 -1052.661201 9516298.000000 5.000000 3.000000 -726421.187500 0.000000 
-2845.503457 -1040.120891 -366.426880 7763878.000000 5.000000 2.000000 -726679.250000 0.000000 
2918.952109 -978.743877 -108.593262 7922302.000000 7.000000 3.000000 -726654.500000 0.000000 
3261.925742 -708.204082 -107.821777 166194.000000 7.000000 5.000000 -727583.500000 0.000000 
3260.854453 -707.495281 -107.593506 166194.000000 7.000000 6.000000 -727583.500000 0.000000 
-3003.614297 -1024.044292 -108.719482 8543392.000000 7.000000 1.000000 -726555.687500 0.000000 
3329.915977 -321.763774 -1019.190506 7526384.000000 2.000000 2.000000 -726721.562500 0.000000 
-2660.855020 -665.236492 -998.621704 1142923.000000 7.000000 2.000000 -727369.937500 0.000000 
-2842.147012 -809.848003 -611.039307 8348033.000000 5.000000 1.000000 -726584.437500 0.000000 
-3143.539102 -1281.238414 -1000.050598 3314553.000000 1.000000 1.000000 -727051.687500 0.000000 
-2954.689492 -676.803508 -765.885590 9320014.000000 5.000000 4.000000 -726446.375000 0.000000 
-2839.233926 -1085.517986 -867.497711 7178536.000000 3.000000 1.000000 -726777.500000 0.000000 
-2956.120156 -683.160625 -846.366302 10489013.000000 2.000000 1.000000 -726312.937500 0.000000 
2833.143516 -1421.493907 -1104.557800 1353986.000000 1.000000 1.000000 -727317.125000 0.000000 
2801.688437 -597.420757 -1086.214001 7138924.000000 7.000000 3.000000 -726785.375000 0.000000 
3266.434531 -703.943706 -108.000122 166240.000000 7.000000 4.000000 -727583.437500 0.000000 
-2795.956094 -1114.307109 -999.651398 2128941.000000 5.000000 2.000000 -727158.312500 0.000000 
-2909.194375 -1119.768474 -867.312195 2524222.000000 7.000000 4.000000 -727110.125000 0.000000 
-2845.650918 -919.004680 -353.151428 7179177.000000 3.000000 1.000000 -726777.375000 0.000000 
3154.638633 -629.569561 -413.743408 166242.000000 1.000000 1.000000 -727583.437500 1.000000 
-2954.294473 -814.081584 -759.795288 9125940.000000 6.000000 5.000000 -726471.875000 0.000000 
-2841.280801 -746.456218 -755.217804 7179823.000000 2.000000 2.000000 -726777.312500 0.000000 
3160.715781 -633.336162 -899.902802 166245.000000 1.000000 1.000000 -727583.437500 1.000000 
-2847.593301 -1109.370891 -229.572815 8153129.000000 4.000000 3.000000 -726614.437500 0.000000 
-2955.948281 -697.801616 -859.579895 10293789.000000 2.000000 2.000000 -726332.187500 0.000000 
3042.063437 -623.323833 -973.316193 6938962.000000 6.000000 2.000000 -726807.687500 0.000000 
-2844.620156 -760.075481 -411.992676 7764706.000000 4.000000 1.000000 -726679.125000 0.000000 
-2611.787148 -321.470806 -1022.645401 10681386.000000 2.000000 1.000000 -726295.437500 0.000000 
-2645.655801 -1422.372203 -1036.654404 1732464.000000 7.000000 3.000000 -727229.625000 0.000000 
-3022.948037 -1050.966472 -108.720459 8737926.000000 7.000000 1.000000 -726526.187500 0.000000 
3039.605430 -1203.644908 -106.505005 8903253.000000 7.000000 7.000000 -726504.125000 0.000000 
2977.688437 -1409.526699 -1000.070099 1355504.000000 1.000000 1.000000 -727316.625000 1.000000 
3120.936484 -621.697490 -927.011002 9883516.000000 6.000000 2.000000 -726377.625000 0.000000 
-2951.135293 -850.099529 -425.214111 9514822.000000 5.000000 2.000000 -726421.437500 0.000000 
3401.984336 -786.434429 -1046.948601 166292.000000 1.000000 1.000000 -727583.437500 1.000000 
-3198.358682 -956.300518 -1026.723099 10491314.000000 3.000000 1.000000 -726312.500000 0.000000 
3158.822227 -719.432109 -751.073486 1162343.000000 1.000000 1.000000 -727363.500000 0.000000 
3274.787070 -694.993816 -108.211182 166332.000000 7.000000 3.000000 -727583.437500 0.000000 
-2839.689004 -867.661602 -869.255707 1734671.000000 1.000000 1.000000 -727229.125000 0.000000 
-2598.029824 -768.499004 -1145.562400 1340173.000000 1.000000 1.000000 -727321.312500 0.000000 
-3198.721230 -1280.067089 -1032.846001 9907068.000000 5.000000 1.000000 -726373.750000 0.000000 
-3080.781045 -321.527446 -1063.413200 9320292.000000 1.000000 1.000000 -726446.375000 5.000000 
-2737.143594 -1033.249675 -999.608002 1536502.000000 7.000000 3.000000 -727272.562500 0.000000 
3135.123984 -628.995586 -352.685608 9293840.000000 5.000000 2.000000 -726451.000000 0.000000 
-2841.436563 -749.419292 -746.029388 7959334.000000 5.000000 4.000000 -726645.375000 0.000000 
3142.310508 -539.790752 -999.884598 1163356.000000 2.000000 1.000000 -727363.187500 0.000000 
-2839.248574 -972.330425 -866.723511 7569163.000000 5.000000 2.000000 -726711.250000 0.000000 
3277.483359 -689.532512 -107.998047 166378.000000 7.000000 4.000000 -727583.437500 0.000000 
3043.430625 -877.942974 -901.363998 10474386.000000 1.000000 1.000000 -726315.625000 0.000000 
3275.584922 -688.260601 -107.591919 166378.000000 7.000000 6.000000 -727583.437500 0.000000 
-3011.082314 -1149.711010 -998.995193 2721702.000000 3.000000 1.000000 -727094.250000 0.000000 
-3087.607705 -745.913188 -108.245117 9710090.000000 7.000000 3.000000 -726396.625000 0.000000 
-3198.340371 -927.035076 -1036.959602 10100958.000000 4.000000 2.000000 -726352.062500 0.000000 
-3124.502969 -1420.147594 -1024.193100 2720000.000000 7.000000 7.000000 -727094.687500 0.000000 
3158.906211 -1019.795391 -756.225800 1160136.000000 1.000000 1.000000 -727364.187500 1.000000 
3042.900352 -771.676311 -943.373901 9490998.000000 1.000000 1.000000 -726425.562500 0.000000 
2801.977500 -1183.625988 -1007.108704 7727772.000000 2.000000 1.000000 -726687.375000 0.000000 
-3197.986367 -1401.890300 -1012.339401 10688286.000000 3.000000 2.000000 -726294.250000 0.000000 
2801.701133 -1086.396709 -1127.933399 7140855.000000 7.000000 3.000000 -726785.062500 0.000000 
-3198.646768 -740.341594 -1041.067802 10100314.000000 4.000000 1.000000 -726352.187500 0.000000 
3401.990195 -765.442913 -1047.273102 166430.000000 1.000000 1.000000 -727583.375000 1.000000 
-2842.307656 -1103.102581 -675.727295 7178489.000000 3.000000 3.000000 -726777.562500 0.000000 
3401.938437 -795.016887 -1123.628500 963669.000000 1.000000 1.000000 -727416.875000 0.000000 
-2737.390176 -1044.172405 -998.721207 1536456.000000 7.000000 1.000000 -727272.562500 0.000000 
-3073.410439 -1345.039104 -999.005905 2720506.000000 3.000000 1.000000 -727094.562500 0.000000 
3256.513633 -472.840801 -1000.081894 1365299.000000 1.000000 1.000000 -727313.625000 0.000000 
3051.602500 -967.364604 -245.832581 8313763.000000 1.000000 1.000000 -726591.375000 0.000000 
-3197.382607 -410.646953 -1056.488403 9709866.000000 5.000000 5.000000 -726396.625000 0.000000 
3401.994102 -758.419597 -1047.382797 166476.000000 1.000000 1.000000 -727583.375000 1.000000 
3292.037070 -677.507183 -108.735718 166516.000000 7.000000 1.000000 -727583.375000 0.000000 
3290.563437 -676.510479 -108.419556 166516.000000 7.000000 2.000000 -727583.375000 0.000000 
-2957.106484 -827.122295 -876.750397 9904215.000000 5.000000 1.000000 -726374.312500 0.000000 
3288.654258 -675.218914 -108.009644 166516.000000 7.000000 4.000000 -727583.375000 0.000000 
3158.912070 -1051.297222 -759.897003 1562045.000000 3.000000 2.000000 -727265.062500 0.000000 
3291.510703 -692.032207 -1000.075607 1364472.000000 1.000000 1.000000 -727313.875000 1.000000 
-3198.027627 -474.242046 -1046.824799 10099302.000000 2.000000 1.000000 -726352.375000 0.000000 
3042.783164 -830.572673 -950.622406 9294716.000000 1.000000 1.000000 -726450.937500 0.000000 
-2779.355020 -1197.231700 -1000.701797 1535766.000000 7.000000 6.000000 -727272.687500 0.000000 
3045.326133 -696.847515 -745.173004 6740334.000000 5.000000 3.000000 -726831.687500 0.000000 
-2950.069863 -988.387676 -431.914429 9126122.000000 6.000000 6.000000 -726471.812500 0.000000 
-3198.365029 -1305.674999 -1035.406303 9712258.000000 6.000000 2.000000 -726396.187500 0.000000 
3291.401328 -669.788372 -107.800903 166562.000000 7.000000 5.000000 -727583.375000 0.000000 
-2956.281289 -873.061077 -891.964386 9514917.000000 5.000000 4.000000 -726421.437500 0.000000 
-2842.777383 -697.064006 -615.237183 8153913.000000 5.000000 3.000000 -726614.312500 0.000000 
-2897.779336 -848.970684 -177.802490 10880516.000000 1.000000 1.000000 -726271.062500 0.000000 
-2974.236367 -1173.708293 -1000.292694 1930771.000000 7.000000 5.000000 -727190.500000 0.000000 
-2908.307656 -627.702251 -502.335999 8931174.000000 1.000000 1.000000 -726498.812500 4.000000 
3384.294883 -1421.945400 -1150.089200 1158715.000000 1.000000 1.000000 -727364.625000 0.000000 
-2841.704629 -681.630596 -721.720093 7570174.000000 3.000000 3.000000 -726711.125000 0.000000 
3365.733359 -641.082988 -109.494995 8900539.000000 7.000000 1.000000 -726504.437500 0.000000 
-3001.764688 -501.416118 -107.675415 8737925.000000 6.000000 5.000000 -726526.187500 0.000000 
-2842.032266 -813.096904 -726.299011 7764524.000000 5.000000 5.000000 -726679.125000 0.000000 
3401.952109 -737.231670 -1047.720001 166614.000000 1.000000 1.000000 -727583.375000 1.000000 
3161.774375 -842.716411 -964.172394 1563379.000000 4.000000 2.000000 -727264.812500 0.000000 
3301.731406 -662.222209 -108.418823 166654.000000 7.000000 2.000000 -727583.312500 0.000000 
-3017.865762 -734.293926 -108.957397 7180785.000000 7.000000 1.000000 -726777.125000 0.000000 
3099.456016 -627.328472 -450.460205 8704718.000000 5.000000 1.000000 -726533.000000 0.000000 
3298.864219 -660.263896 -107.801392 166654.000000 7.000000 5.000000 -727583.312500 0.000000 
-2955.929238 -767.242900 -856.044312 10294065.000000 3.000000 3.000000 -726332.125000 0.000000 
-2597.928262 -805.439312 -1046.671700 7762870.000000 5.000000 3.000000 -726679.437500 0.000000 
-3067.147256 -749.303020 -108.006592 10489837.000000 7.000000 4.000000 -726312.812500 0.000000 
3306.926719 -658.471111 -108.732910 166700.000000 7.000000 1.000000 -727583.312500 0.000000 
-3033.170205 -862.714519 -108.720581 8154968.000000 7.000000 1.000000 -726614.187500 0.000000 
-2597.537148 -1418.679500 -1025.227203 7371364.000000 4.000000 2.000000 -726745.750000 0.000000 
-2841.096719 -843.568889 -747.929596 8153592.000000 5.000000 3.000000 -726614.375000 0.000000 
-2835.394570 -321.589214 -1044.904198 10096404.000000 1.000000 1.000000 -726352.812500 1.000000 
-2877.361855 -321.541240 -1062.029297 9318544.000000 1.000000 1.000000 -726446.687500 4.000000 
-2597.352578 -350.385723 -1060.527603 7958554.000000 5.000000 1.000000 -726645.500000 0.000000 
-3196.235146 -321.490337 -1065.553200 9127414.000000 1.000000 1.000000 -726471.562500 5.000000 
-2843.445352 -910.261089 -531.468018 7569391.000000 3.000000 1.000000 -726711.187500 0.000000 
-2844.338906 -724.056072 -462.081299 8153866.000000 5.000000 2.000000 -726614.312500 0.000000 
-2846.139688 -689.313518 -345.935425 8542427.000000 7.000000 4.000000 -726555.812500 0.000000 
-2839.953652 -1014.556377 -896.172607 8542155.000000 7.000000 6.000000 -726555.812500 0.000000 
3306.348594 -650.761577 -107.801147 166746.000000 7.000000 5.000000 -727583.312500 0.000000 
-2598.143105 -360.497783 -1059.889900 7180101.000000 2.000000 2.000000 -726777.250000 0.000000 
2873.234336 -1264.655803 -1000.057800 1355871.000000 1.000000 1.000000 -727316.437500 1.000000 
-2804.433145 -1276.697185 -999.986893 1140439.000000 7.000000 5.000000 -727370.500000 0.000000 
-2952.730020 -885.506572 -599.424194 10880886.000000 2.000000 2.000000 -726271.000000 0.000000 
-2767.154336 -1018.307292 -999.648499 2129447.000000 6.000000 2.000000 -727158.187500 0.000000 
-2948.433633 -853.248271 -236.563416 9709447.000000 5.000000 3.000000 -726396.687500 0.000000 
3292.736289 -1258.674205 -1000.093597 1159357.000000 1.000000 1.000000 -727364.437500 1.000000 
-2847.964883 -767.347393 -219.781128 7179774.000000 2.000000 2.000000 -726777.312500 0.000000 
-2954.350625 -749.270793 -734.907806 9709174.000000 5.000000 4.000000 -726396.750000 0.000000 
-2956.985391 -852.367412 -893.211609 9514871.000000 5.000000 2.000000 -726421.437500 0.000000 
3402.111289 -497.948101 -1105.945801 1366680.000000 4.000000 2.000000 -727313.250000 0.000000 
-2842.251016 -967.696819 -712.037415 7764064.000000 5.000000 5.000000 -726679.187500 0.000000 
3034.672812 -1186.997386 -108.380249 8903207.000000 7.000000 4.000000 -726504.125000 0.000000 
3315.748008 -642.589580 -108.209106 166838.000000 7.000000 3.000000 -727583.312500 0.000000 
-3198.008828 -532.494731 -1045.571800 10099532.000000 3.000000 2.000000 -726352.312500 0.000000 
3313.860312 -641.283977 -107.801025 166838.000000 7.000000 5.000000 -727583.312500 0.000000 
-2843.268594 -788.070171 -546.436890 7569805.000000 3.000000 1.000000 -726711.125000 0.000000 
-3158.395791 -1347.411693 -1000.186096 2522612.000000 5.000000 4.000000 -727110.562500 0.000000 
3401.962852 -701.694500 -1048.293701 166844.000000 1.000000 1.000000 -727583.250000 1.000000 
-2823.014199 -602.159648 -151.643494 9513210.000000 7.000000 6.000000 -726421.750000 0.000000 
-2608.304727 -703.627605 -1000.444397 7178721.000000 7.000000 7.000000 -726777.500000 0.000000 
3319.511680 -637.862712 -108.208862 166884.000000 7.000000 3.000000 -727583.250000 0.000000 
-2954.224648 -828.500530 -762.478302 8931682.000000 7.000000 7.000000 -726498.750000 0.000000 
-2740.685098 -1043.246624 -999.977798 1536456.000000 7.000000 4.000000 -727272.562500 0.000000 
3161.873008 -1010.100078 -992.703903 960126.000000 1.000000 1.000000 -727417.937500 1.000000 
3315.239219 -634.899517 -107.284668 166884.000000 7.000000 7.000000 -727583.250000 0.000000 
-2881.080117 -627.716411 -501.907898 8930944.000000 1.000000 1.000000 -726498.812500 4.000000 
-2808.297402 -1103.723003 -184.268188 7763463.000000 5.000000 4.000000 -726679.312500 0.000000 
-2953.440957 -1049.082073 -634.343872 10490438.000000 2.000000 1.000000 -726312.687500 0.000000 
-2867.932656 -630.254375 -304.283081 9513625.000000 1.000000 1.000000 -726421.625000 2.000000 
3159.482383 -821.712810 -790.257813 1563470.000000 3.000000 1.000000 -727264.750000 0.000000 
3102.970664 -624.506572 -735.406311 6739644.000000 6.000000 2.000000 -726831.812500 0.000000 
-2954.022012 -734.775005 -681.483795 10293926.000000 2.000000 1.000000 -726332.187500 0.000000 
-2952.953652 -1044.633525 -570.689514 9320703.000000 5.000000 2.000000 -726446.250000 0.000000 
-2874.593301 -1120.969097 -958.594803 1931139.000000 7.000000 5.000000 -727190.375000 0.000000 
3329.484336 -630.121685 -108.734741 166976.000000 7.000000 1.000000 -727583.250000 0.000000 
3328.025352 -629.103008 -108.418335 166976.000000 7.000000 2.000000 -727583.250000 0.000000 
3043.416953 -1052.727703 -899.585007 10474892.000000 1.000000 1.000000 -726315.562500 0.000000 
-2615.531777 -321.599346 -1076.217903 7180377.000000 1.000000 1.000000 -726777.187500 1.000000 
3157.508750 -819.069683 -641.432312 961549.000000 1.000000 1.000000 -727417.562500 1.000000 
3103.571250 -1116.439983 -600.652710 1158847.000000 1.000000 1.000000 -727364.562500 1.000000 
-2598.244180 -967.511089 -1024.905899 6982018.000000 7.000000 5.000000 -726803.250000 0.000000 
-2597.194863 -1198.504497 -1034.081398 7567002.000000 5.000000 1.000000 -726711.750000 0.000000 
-3046.422402 -552.748638 -108.720215 7766774.000000 7.000000 1.000000 -726678.812500 0.000000 
-2955.191934 -1051.478618 -719.413605 9515330.000000 5.000000 1.000000 -726421.375000 0.000000 
3330.844687 -623.722026 -108.209229 167022.000000 7.000000 3.000000 -727583.250000 0.000000 
-2906.935586 -893.892070 -108.844116 10294291.000000 7.000000 1.000000 -726332.125000 0.000000 
-2848.627969 -657.056499 -206.618530 8542472.000000 7.000000 7.000000 -726555.750000 0.000000 
-2861.014688 -1105.766216 -108.488159 7373797.000000 7.000000 2.000000 -726745.250000 0.000000 
-3073.638467 -717.829021 -107.826782 7961078.000000 7.000000 5.000000 -726645.125000 0.000000 
3402.023398 -673.045879 -1048.764603 167028.000000 1.000000 1.000000 -727583.187500 1.000000 
-2950.407266 -894.680278 -367.456970 9904396.000000 3.000000 1.000000 -726374.250000 0.000000 
2929.719687 -976.922405 -107.418701 7922256.000000 7.000000 7.000000 -726654.500000 0.000000 
3084.754844 -625.578594 -675.364197 9097467.000000 5.000000 3.000000 -726477.187500 0.000000 
-2839.548867 -815.097576 -900.828094 8153639.000000 5.000000 4.000000 -726614.375000 0.000000 
3332.747031 -617.694683 -107.799072 167068.000000 7.000000 5.000000 -727583.187500 0.000000 
-3008.447549 -321.525615 -1063.418602 8350290.000000 1.000000 1.000000 -726584.062500 5.000000 
3330.384727 -616.035747 -107.286011 167068.000000 7.000000 7.000000 -727583.187500 0.000000 
3401.714805 -597.843242 -1111.166500 1567473.000000 7.000000 6.000000 -727263.812500 0.000000 
-2900.175820 -616.666240 -107.182251 10488457.000000 7.000000 7.000000 -726313.062500 0.000000 
3339.389609 -615.000469 -108.417603 167114.000000 7.000000 2.000000 -727583.187500 0.000000 
-2869.720254 -626.457256 -607.635010 7959885.000000 1.000000 1.000000 -726645.312500 3.000000 
-2650.922891 -631.768047 -998.410095 1143061.000000 7.000000 1.000000 -727369.875000 0.000000 
-2951.758828 -963.355327 -529.095398 9904627.000000 5.000000 4.000000 -726374.250000 0.000000 
-2880.123086 -1115.309001 -393.049683 1140989.000000 7.000000 2.000000 -727370.375000 0.000000 
-2720.288125 -949.967083 -1001.239594 1536870.000000 7.000000 7.000000 -727272.437500 0.000000 
-3051.470498 -727.290386 -107.827881 7960894.000000 7.000000 5.000000 -726645.125000 0.000000 
-2841.285195 -889.737102 -732.717987 7958966.000000 5.000000 3.000000 -726645.437500 0.000000 
-2737.885293 -833.961284 -1000.271698 6983352.000000 1.000000 1.000000 -726803.000000 0.000000 
2801.999961 -1203.914501 -1012.611099 7532226.000000 3.000000 2.000000 -726720.562500 0.000000 
-2598.618691 -806.888286 -1053.245300 8346104.000000 7.000000 6.000000 -726584.687500 0.000000 
-3198.360635 -1281.133312 -1024.768501 10297194.000000 4.000000 2.000000 -726331.625000 0.000000 
3339.388633 -607.625469 -107.589844 167160.000000 7.000000 6.000000 -727583.187500 0.000000 
3337.997031 -606.642192 -107.286865 167160.000000 7.000000 7.000000 -727583.187500 0.000000 
-3198.391641 -1164.288707 -1017.136902 10687458.000000 3.000000 1.000000 -726294.437500 0.000000 
-2597.247598 -943.852520 -1039.913002 7567738.000000 5.000000 1.000000 -726711.562500 0.000000 
-2949.876504 -1064.570781 -372.484314 10881575.000000 2.000000 2.000000 -726270.875000 0.000000 
-2597.574258 -874.266704 -1037.319199 7373066.000000 4.000000 2.000000 -726745.375000 0.000000 
-2847.041543 -1076.910625 -214.254883 7958549.000000 5.000000 1.000000 -726645.500000 0.000000 
-3006.864297 -321.587505 -1042.010300 10292456.000000 1.000000 1.000000 -726332.375000 1.000000 
-2955.265176 -764.835674 -757.302094 9320198.000000 5.000000 2.000000 -726446.375000 0.000000 
-2598.238809 -1048.814373 -1117.894299 7177388.000000 3.000000 3.000000 -726777.812500 0.000000 
3401.974570 -644.088115 -1049.255997 167212.000000 1.000000 1.000000 -727583.125000 1.000000 
-2847.003457 -648.439189 -301.768188 7959653.000000 5.000000 4.000000 -726645.375000 0.000000 
3350.813437 -600.955547 -108.417236 167252.000000 7.000000 2.000000 -727583.125000 0.000000 
3349.856406 -600.274883 -108.208374 167252.000000 7.000000 3.000000 -727583.125000 0.000000 
-2843.831094 -700.702007 -579.903198 7764891.000000 5.000000 5.000000 -726679.125000 0.000000 
-2842.427773 -779.200176 -615.229797 8348079.000000 6.000000 2.000000 -726584.437500 0.000000 
3123.772422 -1137.857708 -108.594849 7726342.000000 7.000000 3.000000 -726687.687500 0.000000 
3345.625937 -597.266460 -107.285645 167252.000000 7.000000 7.000000 -727583.125000 0.000000 
-3197.700479 -616.925151 -1043.742798 10099854.000000 3.000000 3.000000 -726352.250000 0.000000 
-2807.575723 -873.512310 -157.570923 7374303.000000 3.000000 1.000000 -726745.125000 0.000000 
-3158.746865 -321.557354 -1058.165901 9709268.000000 1.000000 1.000000 -726396.750000 3.000000 
-2597.621133 -619.692485 -1047.236900 7568796.000000 4.000000 2.000000 -726711.312500 0.000000 
-3198.367715 -1350.060405 -1018.547806 10492694.000000 4.000000 2.000000 -726312.250000 0.000000 
3047.071250 -809.856975 -613.334595 7529648.000000 1.000000 1.000000 -726721.062500 0.000000 
-3197.296670 -849.065471 -1046.229401 9711154.000000 5.000000 5.000000 -726396.375000 0.000000 
3349.449180 -592.587505 -107.284790 167298.000000 7.000000 7.000000 -727583.125000 0.000000 
3401.931602 -629.506328 -1049.508102 167304.000000 1.000000 1.000000 -727583.125000 1.000000 
3359.910117 -592.660259 -108.733643 167344.000000 7.000000 1.000000 -727583.125000 0.000000 
-2758.125527 -1036.695598 -1000.395599 1141405.000000 7.000000 6.000000 -727370.312500 0.000000 
3071.354453 -567.590557 -106.504639 9097281.000000 7.000000 7.000000 -726477.187500 0.000000 
-3197.961465 -935.757915 -1044.188797 9711384.000000 5.000000 3.000000 -726396.375000 0.000000 
-2839.606973 -810.143291 -864.206512 7374721.000000 3.000000 2.000000 -726745.062500 0.000000 
3089.174766 -627.908916 -489.520325 10867087.000000 7.000000 4.000000 -726275.562500 0.000000 
-2885.963906 -1092.067791 -108.248047 7373981.000000 7.000000 3.000000 -726745.187500 0.000000 
-2956.054727 -784.328594 -841.442200 10489427.000000 1.000000 1.000000 -726312.875000 0.000000 
-2895.858926 -625.041606 -723.945801 7570726.000000 1.000000 1.000000 -726711.062500 1.000000 
3105.841758 -620.707256 -990.403595 8312248.000000 6.000000 2.000000 -726591.562500 0.000000 
3124.655234 -321.104229 -1016.210693 7722942.000000 3.000000 1.000000 -726688.187500 0.000000 
-2984.881875 -1221.832714 -999.595703 1930541.000000 7.000000 3.000000 -727190.562500 0.000000 
