ply
format ascii 1.0
comment Created by CloudCompare v2.12 alpha
comment Created 6/6/2021 12:23 AM
obj_info Generated by CloudCompare!
element vertex 461
property double x
property double y
property double z
property float scalar_fullwaveIndex
property float scalar_NumberOfReturns
property float scalar_ReturnNumber
property float scalar_GpsTime
property float scalar_Intensity
property float scalar_Original_cloud_index
end_header
-4503.773477 -856.638591 -107.826172 8943776.000000 7.000000 5.000000 -726496.125000 0.000000 0.000000 
-4884.346475 -1016.975383 -107.840942 9529724.000000 7.000000 5.000000 -726417.812500 0.000000 0.000000 
-2824.869668 -1287.628093 -17.983521 3117256.000000 1.000000 1.000000 -727065.562500 0.000000 1.000000 
5566.428672 -1366.733196 -16.803223 4147124.000000 5.000000 4.000000 -726996.937500 0.000000 1.000000 
-4371.894814 -719.606609 -10.689331 3116930.000000 6.000000 1.000000 -727065.687500 0.000000 1.000000 
-3122.042764 -1332.004802 -16.677246 2522747.000000 6.000000 2.000000 -727110.562500 0.000000 1.000000 
-2056.097695 -1051.471721 -108.006104 9704663.000000 7.000000 4.000000 -726397.500000 0.000000 0.000000 
-2052.984902 -496.224834 -107.035889 8147653.000000 1.000000 1.000000 -726615.625000 4.000000 0.000000 
5661.170859 -288.555889 -14.475708 5136906.000000 4.000000 2.000000 -726945.500000 0.000000 1.000000 
2827.285117 -638.012004 -108.245605 7334421.000000 7.000000 3.000000 -726754.125000 0.000000 0.000000 
3430.858359 -277.914043 -35.082642 9292091.000000 5.000000 5.000000 -726451.250000 0.000000 0.000000 
2730.622031 -1108.865398 -108.008667 9099949.000000 7.000000 5.000000 -726476.812500 0.000000 0.000000 
-2018.298867 -369.944438 -55.340454 9701764.000000 4.000000 3.000000 -726398.000000 0.000000 0.000000 
-3908.148965 -1257.561504 -17.887451 5620692.000000 1.000000 1.000000 -726920.312500 0.000000 1.000000 
1174.902305 -500.911846 -106.841309 9101788.000000 5.000000 5.000000 -726476.500000 0.000000 0.000000 
-4824.649941 -578.254253 -14.380005 4067407.000000 4.000000 1.000000 -727000.125000 0.000000 1.000000 
-4910.830605 -1157.053203 -14.202393 3868871.000000 3.000000 1.000000 -727013.937500 0.000000 1.000000 
-5052.069741 -604.120464 -14.609131 3511840.000000 6.000000 3.000000 -727038.875000 0.000000 1.000000 
-1500.348184 -952.795513 -8.925049 1340906.000000 7.000000 2.000000 -727321.125000 0.000000 1.000000 
4467.922812 -642.629375 -106.702026 8309071.000000 7.000000 7.000000 -726592.000000 0.000000 0.000000 
5196.341758 -328.075908 -15.708740 4937635.000000 3.000000 3.000000 -726956.187500 0.000000 1.000000 
2680.776328 -527.754863 -16.716187 1760806.000000 1.000000 1.000000 -727221.875000 0.000000 1.000000 
-4654.089150 -424.509258 -65.006348 8362060.000000 4.000000 2.000000 -726581.625000 0.000000 0.000000 
1734.810508 -730.300701 -11.675293 1351950.000000 6.000000 4.000000 -727317.937500 0.000000 1.000000 
-4056.500771 -340.055400 -14.147949 1735173.000000 7.000000 2.000000 -727228.937500 0.000000 1.000000 
-3504.910195 -1204.749706 -15.373657 6985601.000000 5.000000 1.000000 -726802.562500 0.000000 1.000000 
-2862.860391 -276.940654 -29.192261 6791531.000000 6.000000 5.000000 -726827.187500 0.000000 0.000000 
-5679.430459 -451.264629 -18.000854 5237876.000000 4.000000 3.000000 -726939.437500 0.000000 0.000000 
4371.832969 -332.083843 -49.450684 8701083.000000 7.000000 5.000000 -726533.500000 0.000000 0.000000 
2409.640586 -904.172100 -8.849121 1956908.000000 1.000000 1.000000 -727183.625000 2.000000 1.000000 
-4986.428262 -353.103496 -14.820313 6799162.000000 6.000000 1.000000 -726825.562500 0.000000 1.000000 
4134.889609 -1015.514995 -10.694336 6339164.000000 3.000000 1.000000 -726868.062500 0.000000 1.000000 
1424.956016 -281.654644 -40.417480 7925934.000000 4.000000 2.000000 -726653.562500 0.000000 0.000000 
-4154.658975 -1222.952892 -108.274780 10692605.000000 7.000000 3.000000 -726293.437500 0.000000 0.000000 
-286.796426 -558.976543 -16.753418 1345323.000000 7.000000 7.000000 -727320.000000 0.000000 1.000000 
5612.145469 -1138.024211 -13.629150 5340824.000000 6.000000 1.000000 -726932.062500 0.000000 1.000000 
-2957.414102 -1322.776195 -17.435059 6395930.000000 1.000000 1.000000 -726866.062500 0.000000 1.000000 
4684.385703 -637.248760 -13.993042 2387882.000000 1.000000 1.000000 -727124.687500 0.000000 1.000000 
-2170.335977 -460.260845 -71.032837 7760563.000000 2.000000 1.000000 -726680.000000 0.000000 0.000000 
-4733.957070 -276.488384 -31.516602 7581533.000000 2.000000 1.000000 -726708.937500 0.000000 0.000000 
4547.743125 -1339.775188 -16.903687 1176649.000000 1.000000 1.000000 -727358.875000 2.000000 1.000000 
5105.993125 -565.402202 -16.081665 4540379.000000 3.000000 3.000000 -726976.500000 0.000000 1.000000 
-3308.512979 -804.015728 -108.489380 7377293.000000 7.000000 2.000000 -726744.562500 0.000000 0.000000 
5800.139609 -390.685039 -16.567261 7126910.000000 7.000000 4.000000 -726787.687500 0.000000 1.000000 
4416.556602 -448.970317 -17.855225 5736565.000000 1.000000 1.000000 -726908.937500 0.000000 1.000000 
-5635.320352 -489.989604 -18.011841 5628002.000000 5.000000 5.000000 -726918.250000 0.000000 0.000000 
-3988.811074 -341.863872 -16.274658 2525919.000000 7.000000 6.000000 -727109.625000 0.000000 1.000000 
302.932578 -530.832744 -16.608521 1942871.000000 3.000000 2.000000 -727186.875000 0.000000 1.000000 
3355.610312 -1399.459301 -50.710571 559176.000000 7.000000 7.000000 -727508.437500 0.000000 0.000000 
3622.621055 -917.666423 -9.008057 764477.000000 7.000000 4.000000 -727464.250000 0.000000 1.000000 
352.348105 -473.270854 -18.388306 1546070.000000 7.000000 6.000000 -727269.875000 0.000000 1.000000 
-2827.555215 -1002.114788 -107.605591 8347662.000000 7.000000 6.000000 -726584.500000 0.000000 0.000000 
3709.148398 -1021.104106 -11.951660 5542263.000000 1.000000 1.000000 -726921.562500 0.000000 1.000000 
-3873.027139 -1056.764629 -107.840088 9327600.000000 7.000000 5.000000 -726444.812500 0.000000 0.000000 
4302.452109 -1335.768413 -17.036011 767468.000000 7.000000 7.000000 -727463.000000 0.000000 1.000000 
4602.853477 -989.791118 -11.370850 6337553.000000 4.000000 4.000000 -726868.437500 0.000000 1.000000 
4873.834922 -1114.773784 -109.495361 7917151.000000 7.000000 1.000000 -726655.250000 0.000000 0.000000 
-2222.364297 -603.816387 -15.453125 1143702.000000 7.000000 7.000000 -727369.750000 0.000000 1.000000 
-2148.614297 -1041.513591 -107.841064 8148068.000000 7.000000 5.000000 -726615.500000 0.000000 0.000000 
-2775.434121 -279.244609 -14.368652 3881801.000000 1.000000 1.000000 -727011.750000 0.000000 1.000000 
-2475.556680 -906.423809 -108.021118 9122440.000000 7.000000 4.000000 -726472.562500 0.000000 0.000000 
3541.258750 -584.769634 -15.370117 4337523.000000 1.000000 1.000000 -726987.687500 0.000000 1.000000 
-2726.258340 -744.675273 -108.408081 9512934.000000 7.000000 2.000000 -726421.812500 0.000000 0.000000 
-1999.394082 -507.204448 -17.293945 3324120.000000 1.000000 1.000000 -727050.250000 0.000000 1.000000 
-4412.061318 -1040.107891 -108.004028 8163203.000000 7.000000 4.000000 -726612.437500 0.000000 0.000000 
-1509.789102 -1053.037212 -108.735474 7948796.000000 7.000000 1.000000 -726647.812500 0.000000 0.000000 
5522.307578 -286.813945 -42.202637 9879834.000000 7.000000 5.000000 -726377.937500 0.000000 0.000000 
5538.013633 -502.530986 -107.893188 183534.000000 6.000000 4.000000 -727576.687500 0.000000 0.000000 
-3832.500283 -950.452312 -107.524048 7769995.000000 7.000000 6.000000 -726678.062500 0.000000 0.000000 
-5591.102944 -871.696025 -107.601929 10895740.000000 7.000000 6.000000 -726266.625000 0.000000 0.000000 
-3573.376016 -501.693218 -108.355469 9130903.000000 6.000000 2.000000 -726470.625000 0.000000 0.000000 
5699.159141 -842.520427 -107.961792 183579.000000 2.000000 2.000000 -727576.687500 0.000000 0.000000 
-1465.037148 -289.711895 -40.418457 10873432.000000 7.000000 7.000000 -726272.500000 0.000000 0.000000 
-4725.596963 -276.519268 -34.813843 9916766.000000 1.000000 1.000000 -726371.687500 4.000000 0.000000 
4471.591758 -969.776592 -10.524048 4741769.000000 1.000000 1.000000 -726965.125000 0.000000 1.000000 
5042.163047 -1004.497722 -11.497803 5739139.000000 3.000000 2.000000 -726908.250000 0.000000 1.000000 
-5503.098306 -878.730693 -108.298584 7777586.000000 7.000000 4.000000 -726676.437500 0.000000 0.000000 
-4871.291055 -1172.690410 -106.986816 7578314.000000 7.000000 7.000000 -726709.562500 0.000000 0.000000 
-2386.603555 -519.484355 -108.735352 7373014.000000 7.000000 1.000000 -726745.375000 0.000000 0.000000 
-3777.428262 -1100.899089 -13.929688 4455789.000000 1.000000 1.000000 -726978.687500 0.000000 1.000000 
-617.823770 -917.724529 -107.712646 9893264.000000 7.000000 6.000000 -726376.125000 0.000000 0.000000 
-2815.939492 -540.303325 -107.524658 10487721.000000 7.000000 6.000000 -726313.250000 0.000000 0.000000 
2403.769492 -1144.841228 -107.711792 8120654.000000 7.000000 6.000000 -726621.687500 0.000000 0.000000 
702.517051 -896.588787 -107.179565 8322823.000000 7.000000 7.000000 -726589.625000 0.000000 0.000000 
5274.174766 -316.828716 -15.276245 1388891.000000 1.000000 1.000000 -727306.812500 0.000000 1.000000 
5544.840781 -498.426616 -107.520630 183626.000000 6.000000 6.000000 -727576.687500 0.000000 0.000000 
-1607.484414 -811.322612 -108.299316 10483950.000000 7.000000 4.000000 -726314.187500 0.000000 0.000000 
456.719199 -276.583843 -30.391113 7932005.000000 1.000000 1.000000 -726652.125000 2.000000 0.000000 
-2843.184609 -1184.386089 -15.974121 3713097.000000 1.000000 1.000000 -727023.000000 0.000000 1.000000 
-1354.593789 -492.161846 -93.945068 7559543.000000 1.000000 1.000000 -726713.500000 4.000000 0.000000 
5191.655234 -337.136455 -15.980225 5734999.000000 3.000000 3.000000 -726909.437500 0.000000 1.000000 
5664.781211 -1080.588726 -13.293579 1195507.000000 1.000000 1.000000 -727352.500000 1.000000 1.000000 
5241.581992 -1318.208293 -17.343750 1393266.000000 1.000000 1.000000 -727305.437500 2.000000 1.000000 
-4697.500771 -904.717571 -108.241577 9139598.000000 7.000000 3.000000 -726468.562500 0.000000 0.000000 
4743.998008 -507.839824 -17.141235 1181245.000000 1.000000 1.000000 -727357.312500 0.000000 1.000000 
-3910.697061 -1252.194805 -17.886841 6400574.000000 3.000000 3.000000 -726865.500000 0.000000 1.000000 
2756.884727 -814.460674 -9.593506 6543407.000000 1.000000 1.000000 -726850.875000 0.000000 1.000000 
-5035.882852 -918.962200 -107.617554 10502762.000000 7.000000 6.000000 -726310.187500 0.000000 0.000000 
1895.926719 -714.566509 -108.008057 9689439.000000 7.000000 5.000000 -726400.062500 0.000000 0.000000 
1002.843223 -1150.402385 -15.260254 1544278.000000 4.000000 4.000000 -727270.437500 0.000000 1.000000 
2276.659141 -516.165874 -17.043701 6743922.000000 1.000000 1.000000 -726831.187500 0.000000 1.000000 
-3946.332070 -1195.733409 -16.201172 3313168.000000 3.000000 2.000000 -727052.000000 0.000000 1.000000 
-3527.142129 -451.069072 -18.168213 3516627.000000 2.000000 2.000000 -727037.562500 0.000000 1.000000 
-3668.238564 -1453.422603 -14.730225 3114402.000000 4.000000 3.000000 -727066.375000 0.000000 1.000000 
-3281.848916 -627.317485 -108.487183 10685751.000000 7.000000 2.000000 -726294.750000 0.000000 0.000000 
5557.065391 -496.616680 -108.177124 183764.000000 3.000000 3.000000 -727576.625000 0.000000 0.000000 
2934.384727 -435.104351 -67.722656 8311968.000000 7.000000 2.000000 -726591.625000 0.000000 0.000000 
4674.487266 -1258.556804 -17.762451 5541984.000000 2.000000 1.000000 -726921.625000 0.000000 1.000000 
-4083.304482 -968.155010 -10.653687 5428550.000000 1.000000 1.000000 -726929.875000 0.000000 1.000000 
3661.584922 -442.642925 -17.693848 1974341.000000 1.000000 1.000000 -727181.937500 1.000000 1.000000 
-1679.548867 -897.602886 -107.711182 10484548.000000 7.000000 6.000000 -726314.062500 0.000000 0.000000 
1991.275352 -1262.950511 -17.431519 1150330.000000 7.000000 2.000000 -727367.937500 0.000000 1.000000 
-2666.601113 -867.624492 -108.020996 7957766.000000 7.000000 4.000000 -726645.687500 0.000000 0.000000 
496.488730 -1271.375591 -18.137329 1541517.000000 6.000000 4.000000 -727271.250000 0.000000 1.000000 
-3993.462197 -1039.679607 -107.245239 9134124.000000 7.000000 7.000000 -726469.875000 0.000000 0.000000 
-1499.627969 -1009.506023 -107.246338 8337496.000000 7.000000 7.000000 -726586.437500 0.000000 0.000000 
2325.105430 -815.278484 -9.405396 956391.000000 7.000000 4.000000 -727419.250000 0.000000 1.000000 
-3506.201943 -684.051921 -108.229004 8158832.000000 7.000000 3.000000 -726613.375000 0.000000 0.000000 
-1095.406777 -1465.226894 -27.490845 351347.000000 7.000000 6.000000 -727550.437500 0.000000 0.000000 
627.674277 -730.905071 -107.418091 9300508.000000 7.000000 7.000000 -726450.062500 0.000000 0.000000 
-2756.246621 -1014.725078 -107.244385 8347110.000000 7.000000 7.000000 -726584.562500 0.000000 0.000000 
516.480430 -586.247783 -109.496094 10477419.000000 7.000000 1.000000 -726315.250000 0.000000 0.000000 
-3205.248330 -1379.702007 -16.227539 3872234.000000 1.000000 1.000000 -727013.062500 0.000000 1.000000 
-228.763223 -428.082012 -17.051880 1346151.000000 7.000000 3.000000 -727319.750000 0.000000 1.000000 
3427.126914 -1361.460002 -16.620483 5745629.000000 1.000000 1.000000 -726907.062500 0.000000 1.000000 
1433.880820 -658.991680 -107.839355 7342700.000000 7.000000 5.000000 -726752.250000 0.000000 0.000000 
-4408.529824 -598.941997 -15.155762 4068328.000000 2.000000 2.000000 -726999.937500 0.000000 1.000000 
4530.032187 -939.393230 -9.773926 5939056.000000 1.000000 1.000000 -726896.000000 0.000000 1.000000 
-3148.368447 -1181.833904 -16.160156 1337961.000000 7.000000 6.000000 -727321.812500 0.000000 1.000000 
3353.245078 -1085.233928 -13.413452 1362581.000000 1.000000 1.000000 -727314.375000 1.000000 1.000000 
-2467.855996 -1158.836193 -15.334961 3516217.000000 1.000000 1.000000 -727037.625000 0.000000 1.000000 
-4492.806680 -1424.163005 -15.230347 4841911.000000 1.000000 1.000000 -726959.750000 0.000000 1.000000 
-4583.907266 -503.262310 -107.619751 8556180.000000 7.000000 6.000000 -726553.000000 0.000000 0.000000 
3986.345664 -1260.318615 -17.869507 3384841.000000 1.000000 1.000000 -727048.812500 0.000000 1.000000 
4575.243125 -1382.794994 -16.095947 973278.000000 1.000000 1.000000 -727413.437500 0.000000 1.000000 
5738.650352 -1215.026500 -16.870972 6733196.000000 7.000000 5.000000 -726833.125000 0.000000 1.000000 
-3370.432900 -972.644573 -107.523682 10492275.000000 7.000000 6.000000 -726312.375000 0.000000 0.000000 
-377.900430 -1266.795604 -18.066650 6768808.000000 1.000000 1.000000 -726829.437500 0.000000 1.000000 
-4575.755654 -643.035015 -12.698608 6992086.000000 4.000000 1.000000 -726801.250000 0.000000 1.000000 
1252.069297 -611.258647 -14.586304 2348231.000000 1.000000 1.000000 -727126.625000 1.000000 1.000000 
-4411.233438 -490.895488 -17.888184 6796817.000000 2.000000 2.000000 -726826.062500 0.000000 1.000000 
698.909141 -663.576030 -108.407959 7737104.000000 7.000000 2.000000 -726685.250000 0.000000 0.000000 
-327.260781 -470.986431 -18.503540 1543815.000000 7.000000 6.000000 -727270.562500 0.000000 1.000000 
-3609.893594 -500.706035 -108.629150 9131225.000000 6.000000 1.000000 -726470.500000 0.000000 0.000000 
-4659.865273 -873.597820 -107.791504 8165135.000000 7.000000 5.000000 -726612.062500 0.000000 0.000000 
2253.832969 -1056.452922 -108.247681 7339021.000000 7.000000 3.000000 -726753.125000 0.000000 0.000000 
-5271.693154 -1049.388408 -108.020142 9921460.000000 7.000000 4.000000 -726370.625000 0.000000 0.000000 
5370.667930 -681.544292 -12.913086 6135060.000000 5.000000 4.000000 -726883.250000 0.000000 1.000000 
-4758.377725 -1290.522106 -16.915039 6012563.000000 4.000000 1.000000 -726893.250000 0.000000 0.000000 
-4933.635049 -410.349346 -17.423218 2129027.000000 7.000000 6.000000 -727158.312500 0.000000 0.000000 
1074.863242 -908.987712 -8.119995 950870.000000 7.000000 2.000000 -727420.937500 0.000000 1.000000 
-5052.994912 -925.023601 -107.228882 10502900.000000 7.000000 7.000000 -726310.125000 0.000000 0.000000 
5510.956016 -359.427959 -14.961060 3582681.000000 5.000000 1.000000 -727035.500000 0.000000 1.000000 
-1786.596719 -1038.256389 -108.719238 7950912.000000 7.000000 1.000000 -726647.312500 0.000000 0.000000 
1595.669883 -864.400127 -106.987793 8710006.000000 7.000000 7.000000 -726532.187500 0.000000 0.000000 
167.146934 -1467.244594 -25.137329 2333142.000000 4.000000 1.000000 -727129.312500 0.000000 0.000000 
-982.714883 -297.337139 -14.675659 7168651.000000 7.000000 4.000000 -726780.375000 0.000000 1.000000 
3751.014609 -385.338848 -58.535522 7917196.000000 7.000000 5.000000 -726655.250000 0.000000 0.000000 
5591.143516 -291.613506 -13.539063 3942699.000000 7.000000 1.000000 -727010.187500 0.000000 1.000000 
-4445.397256 -710.582073 -108.406982 10497978.000000 7.000000 2.000000 -726311.250000 0.000000 0.000000 
-4317.991006 -980.327617 -10.333252 3313581.000000 5.000000 2.000000 -727051.937500 0.000000 1.000000 
-1378.336953 -501.925273 -108.202148 7947737.000000 5.000000 2.000000 -726648.062500 0.000000 0.000000 
-1051.956582 -566.424541 -109.170532 10285138.000000 7.000000 1.000000 -726333.562500 0.000000 0.000000 
-2299.647012 -276.524028 -38.089355 8343888.000000 1.000000 1.000000 -726585.125000 4.000000 0.000000 
-3219.547646 -865.859172 -107.790649 10491079.000000 7.000000 5.000000 -726312.562500 0.000000 0.000000 
4242.524375 -1367.236888 -56.510620 565662.000000 5.000000 3.000000 -727506.625000 0.000000 0.000000 
676.681602 -1125.642498 -14.440552 2339445.000000 1.000000 1.000000 -727127.937500 1.000000 1.000000 
-3542.464150 -924.066814 -108.408447 8547578.000000 7.000000 2.000000 -726554.812500 0.000000 0.000000 
2861.128867 -1217.083507 -16.973877 6743873.000000 2.000000 2.000000 -726831.187500 0.000000 1.000000 
2122.218711 -662.219585 -107.710693 8511470.000000 7.000000 6.000000 -726562.375000 0.000000 0.000000 
769.237266 -853.111980 -8.588257 6955844.000000 1.000000 1.000000 -726805.750000 0.000000 1.000000 
1557.182578 -666.929119 -108.751465 9886365.000000 7.000000 3.000000 -726377.250000 0.000000 0.000000 
1237.209922 -399.759502 -60.349854 8513631.000000 6.000000 5.000000 -726562.000000 0.000000 0.000000 
-1596.603066 -418.959697 -17.405884 2928795.000000 1.000000 1.000000 -727077.937500 0.000000 1.000000 
-1929.461465 -893.909221 -9.525146 2131653.000000 7.000000 7.000000 -727157.625000 0.000000 1.000000 
4613.229453 -400.329570 -60.200439 8504387.000000 7.000000 7.000000 -726563.312500 0.000000 0.000000 
-3687.525918 -1309.336895 -17.551147 6204201.000000 1.000000 1.000000 -726880.562500 0.000000 1.000000 
3054.209922 -590.700664 -14.845337 1162291.000000 6.000000 2.000000 -727363.562500 0.000000 1.000000 
5064.670859 -1248.829692 -100.534546 779154.000000 1.000000 1.000000 -727458.125000 12.000000 0.000000 
-599.433633 -1048.925273 -108.019165 7358662.000000 7.000000 4.000000 -726748.625000 0.000000 0.000000 
-2898.033242 -999.574016 148.241333 1536452.000000 1.000000 1.000000 -727272.562500 0.000000 0.000000 
3304.887656 -1406.124797 -50.276489 558854.000000 7.000000 2.000000 -727508.562500 0.000000 0.000000 
5275.273398 -1230.454204 -16.649170 782879.000000 4.000000 1.000000 -727456.000000 0.000000 1.000000 
-3868.301553 -1205.259288 -16.563354 4843431.000000 1.000000 1.000000 -726959.062500 0.000000 1.000000 
-2124.122109 -1280.372997 -18.224365 2327017.000000 6.000000 4.000000 -727130.937500 0.000000 1.000000 
-4151.344521 -546.376201 -16.380249 5431724.000000 1.000000 1.000000 -726929.312500 0.000000 1.000000 
1449.599570 -1012.156475 -108.300415 8711110.000000 7.000000 4.000000 -726532.000000 0.000000 0.000000 
-4446.050088 -874.033611 -108.006836 8943316.000000 7.000000 4.000000 -726496.187500 0.000000 0.000000 
1573.393516 -1231.037914 -17.232666 6950506.000000 1.000000 1.000000 -726806.250000 0.000000 1.000000 
-815.661660 -1445.523098 -43.906860 351669.000000 7.000000 4.000000 -727550.437500 0.000000 0.000000 
-4486.855752 -1188.395610 -108.006470 7381020.000000 7.000000 5.000000 -726743.750000 0.000000 0.000000 
-1313.070840 -401.886455 -60.436646 10677334.000000 7.000000 7.000000 -726296.000000 0.000000 0.000000 
-1116.515664 -317.815532 -45.523315 9892573.000000 5.000000 5.000000 -726376.250000 0.000000 0.000000 
2643.027305 -589.922344 -15.133301 1961323.000000 1.000000 1.000000 -727183.125000 1.000000 1.000000 
-4816.513223 -642.483013 -12.711182 6797322.000000 4.000000 1.000000 -726825.937500 0.000000 1.000000 
-5636.532998 -496.335552 -107.354248 10118937.000000 1.000000 1.000000 -726348.062500 4.000000 0.000000 
-3410.706582 -556.969097 -107.243652 7963930.000000 7.000000 7.000000 -726644.500000 0.000000 0.000000 
5582.969687 -676.324199 -108.016235 384557.000000 7.000000 4.000000 -727539.750000 0.000000 0.000000 
3584.115195 -561.743022 -15.919189 5138062.000000 1.000000 1.000000 -726945.062500 0.000000 1.000000 
-2829.897988 -276.722637 -37.085815 10877755.000000 2.000000 2.000000 -726271.625000 0.000000 0.000000 
-3173.921914 -1039.475200 -107.228760 9127868.000000 7.000000 7.000000 -726471.437500 0.000000 0.000000 
-3413.153848 -1017.767498 -108.721680 8740916.000000 7.000000 1.000000 -726525.625000 0.000000 0.000000 
-4133.892861 -1019.922283 -108.736206 9718370.000000 7.000000 1.000000 -726394.812500 0.000000 0.000000 
2082.677695 -1205.488201 -16.328613 952435.000000 7.000000 4.000000 -727420.500000 0.000000 1.000000 
-1370.131875 -586.572246 -15.510620 2332998.000000 4.000000 4.000000 -727129.375000 0.000000 1.000000 
-3593.210732 -479.107891 -17.797241 2328256.000000 7.000000 4.000000 -727130.625000 0.000000 1.000000 
-5656.877847 -601.085552 -15.225342 5432226.000000 4.000000 4.000000 -726929.187500 0.000000 1.000000 
-2467.998574 -504.842144 -107.368164 8539251.000000 5.000000 5.000000 -726556.312500 0.000000 0.000000 
516.287070 -874.657695 -107.827515 7544410.000000 7.000000 5.000000 -726717.437500 0.000000 0.000000 
-1420.359414 -580.895244 -15.914063 1342746.000000 7.000000 7.000000 -727320.625000 0.000000 1.000000 
2918.283164 -445.801616 -68.982788 8312060.000000 7.000000 4.000000 -726591.562500 0.000000 0.000000 
-4952.204873 -1054.534526 -108.409058 9919022.000000 7.000000 2.000000 -726371.187500 0.000000 0.000000 
-1444.511270 -1324.696086 -17.326050 6581358.000000 1.000000 1.000000 -726848.687500 0.000000 1.000000 
1613.011680 -833.630413 -108.299805 8709822.000000 7.000000 4.000000 -726532.187500 0.000000 0.000000 
4982.321250 -368.466411 -56.911743 10077358.000000 7.000000 3.000000 -726355.625000 0.000000 0.000000 
-628.523965 -978.394817 -108.408447 7942034.000000 7.000000 2.000000 -726649.375000 0.000000 0.000000 
3982.878867 -313.929912 -15.229248 1373803.000000 1.000000 1.000000 -727311.250000 0.000000 1.000000 
-2231.248086 -1427.482601 -15.490723 2523807.000000 4.000000 4.000000 -727110.250000 0.000000 1.000000 
-2426.285195 -501.367534 -108.202759 8538883.000000 6.000000 3.000000 -726556.375000 0.000000 0.000000 
1753.174766 -1435.825099 -14.975464 1945270.000000 1.000000 1.000000 -727186.187500 1.000000 1.000000 
-4220.869180 -501.472637 -108.406860 8359024.000000 7.000000 2.000000 -726582.250000 0.000000 0.000000 
1085.057578 -875.772197 -108.005371 8125483.000000 7.000000 4.000000 -726620.687500 0.000000 0.000000 
3796.376914 -1002.176189 -11.164185 6937209.000000 4.000000 2.000000 -726808.000000 0.000000 1.000000 
-5252.995400 -843.574626 -9.187744 6211282.000000 5.000000 5.000000 -726879.000000 0.000000 1.000000 
-4238.262002 -446.174663 -68.671509 8164490.000000 5.000000 2.000000 -726612.187500 0.000000 0.000000 
-4170.249795 -418.346660 -63.740601 8747999.000000 1.000000 1.000000 -726523.812500 0.000000 0.000000 
3825.150352 -347.048076 -51.321167 7916828.000000 7.000000 7.000000 -726655.312500 0.000000 0.000000 
-3958.514199 -842.868389 -8.804077 6207927.000000 1.000000 1.000000 -726879.875000 0.000000 1.000000 
-5108.666787 -509.719585 -17.232178 3871814.000000 6.000000 4.000000 -727013.187500 0.000000 0.000000 
-4039.615029 -475.964580 -18.146362 5821114.000000 1.000000 1.000000 -726904.437500 0.000000 1.000000 
1645.102500 -514.212383 -108.379272 9885629.000000 7.000000 4.000000 -726377.375000 0.000000 0.000000 
2673.649375 -1176.818889 -109.296753 9100317.000000 7.000000 2.000000 -726476.750000 0.000000 0.000000 
-1349.563516 -962.855999 -10.507690 1934634.000000 7.000000 5.000000 -727189.500000 0.000000 1.000000 
-4787.294717 -1226.863201 -17.051758 6012977.000000 4.000000 3.000000 -726893.187500 0.000000 0.000000 
-3914.730996 -282.906353 -40.226440 7773214.000000 4.000000 3.000000 -726677.375000 0.000000 0.000000 
-4926.720010 -935.326213 -108.488281 8361555.000000 7.000000 2.000000 -726581.750000 0.000000 0.000000 
-5586.757485 -429.602764 -16.879272 1535899.000000 7.000000 4.000000 -727272.687500 0.000000 0.000000 
132.659141 -494.962261 -102.113770 9693072.000000 1.000000 1.000000 -726399.562500 0.000000 0.000000 
612.032187 -1168.185497 -15.478394 1741160.000000 1.000000 1.000000 -727227.312500 0.000000 1.000000 
5165.182578 -1217.980205 -15.716919 5341699.000000 3.000000 1.000000 -726931.875000 0.000000 1.000000 
-2298.243691 -478.160381 -16.853149 2529004.000000 6.000000 1.000000 -727108.750000 0.000000 1.000000 
-5017.911172 -929.756206 -9.627563 3708169.000000 5.000000 4.000000 -727024.125000 0.000000 1.000000 
-5093.673501 -496.071636 -106.543335 10114153.000000 1.000000 1.000000 -726349.062500 4.000000 0.000000 
-1114.202676 -288.740459 -42.181885 9306072.000000 4.000000 1.000000 -726449.000000 0.000000 0.000000 
2214.960898 -551.411113 -107.053345 7727813.000000 7.000000 7.000000 -726687.375000 0.000000 0.000000 
-5052.651895 -661.289897 -108.020630 10891324.000000 7.000000 4.000000 -726267.750000 0.000000 0.000000 
5610.206016 -472.501934 -18.164429 5735412.000000 5.000000 4.000000 -726909.250000 0.000000 1.000000 
2155.821250 -466.114849 -73.073975 8706556.000000 7.000000 2.000000 -726532.812500 0.000000 0.000000 
-4969.086465 -1433.666606 -16.085205 3310222.000000 7.000000 7.000000 -727052.687500 0.000000 1.000000 
-2661.211465 -1053.262310 -107.619995 8735166.000000 7.000000 6.000000 -726526.625000 0.000000 0.000000 
-5181.520425 -669.381572 -13.541748 6407334.000000 5.000000 5.000000 -726863.937500 0.000000 1.000000 
2153.209922 -475.183940 -72.518433 8706602.000000 7.000000 7.000000 -726532.812500 0.000000 0.000000 
-878.777871 -726.600627 -108.005249 8526832.000000 7.000000 4.000000 -726559.312500 0.000000 0.000000 
-4253.794229 -1465.664302 -13.988647 2915772.000000 7.000000 3.000000 -727081.187500 0.000000 1.000000 
-5583.103555 -459.779644 -16.951782 5823318.000000 5.000000 1.000000 -726903.937500 0.000000 0.000000 
-2244.624063 -885.174907 -9.832031 1142552.000000 7.000000 7.000000 -727370.062500 0.000000 1.000000 
206.602500 -1017.296672 -108.720825 7352498.000000 7.000000 1.000000 -726749.937500 0.000000 0.000000 
4265.659141 -1400.897686 -15.731689 766410.000000 7.000000 5.000000 -727463.437500 0.000000 1.000000 
4979.656211 -888.933574 -106.967041 9685254.000000 7.000000 7.000000 -726400.562500 0.000000 0.000000 
-5422.977456 -396.258403 -17.193604 6213904.000000 4.000000 4.000000 -726878.187500 0.000000 0.000000 
3448.181602 -471.066997 -18.236450 6537840.000000 1.000000 1.000000 -726851.687500 0.000000 1.000000 
-4400.707803 -890.733684 -107.243652 8942948.000000 7.000000 7.000000 -726496.312500 0.000000 0.000000 
-4235.064736 -736.884075 -11.745117 6795023.000000 2.000000 2.000000 -726826.437500 0.000000 1.000000 
-5477.401895 -384.358989 -18.559937 1338696.000000 7.000000 7.000000 -727321.625000 0.000000 0.000000 
4950.359336 -779.899272 -10.709106 4142893.000000 3.000000 3.000000 -726997.812500 0.000000 1.000000 
4789.208945 -1266.319103 -16.754150 6934677.000000 6.000000 1.000000 -726808.625000 0.000000 1.000000 
2302.557578 -494.535625 -100.749878 8510182.000000 1.000000 1.000000 -726562.625000 0.000000 0.000000 
-4064.064492 -551.821514 -15.287842 2524907.000000 7.000000 2.000000 -727109.875000 0.000000 1.000000 
-2696.376016 -283.254741 -14.815552 3123649.000000 2.000000 2.000000 -727063.937500 0.000000 1.000000 
-5471.810952 -759.862529 -9.010376 1337592.000000 7.000000 2.000000 -727321.875000 0.000000 1.000000 
5381.147422 -648.743328 -13.150146 785730.000000 7.000000 1.000000 -727454.500000 0.000000 1.000000 
-3814.889688 -753.084697 -107.245483 10104448.000000 7.000000 7.000000 -726351.375000 0.000000 0.000000 
3316.781211 -478.108257 -74.862061 10866442.000000 7.000000 6.000000 -726275.750000 0.000000 0.000000 
2652.710898 -1242.573009 -106.504883 9100593.000000 7.000000 7.000000 -726476.687500 0.000000 0.000000 
-1688.481973 -471.905620 -73.322510 7173705.000000 7.000000 7.000000 -726778.750000 0.000000 0.000000 
-764.701211 -820.793804 -108.228638 8331700.000000 7.000000 3.000000 -726587.750000 0.000000 0.000000 
4656.510703 -649.544414 -13.764038 3184785.000000 1.000000 1.000000 -727062.062500 0.000000 1.000000 
5131.456016 -672.915691 -13.048096 984362.000000 5.000000 4.000000 -727409.062500 0.000000 1.000000 
-5002.965615 -477.403911 -74.262329 7973039.000000 5.000000 2.000000 -726642.625000 0.000000 0.000000 
-3721.749795 -1030.111125 -107.230103 8937658.000000 7.000000 7.000000 -726497.500000 0.000000 0.000000 
1689.525352 -469.105815 -72.264648 7535118.000000 5.000000 4.000000 -726719.875000 0.000000 0.000000 
-3270.688027 -492.111064 -93.461304 7768476.000000 1.000000 1.000000 -726678.375000 1.000000 0.000000 
-471.875039 -1061.855510 -107.256348 10873985.000000 7.000000 7.000000 -726272.250000 0.000000 0.000000 
-4503.423623 -564.737529 -108.407593 10692558.000000 7.000000 2.000000 -726293.437500 0.000000 0.000000 
-4656.405313 -1040.339824 -108.410156 9527976.000000 7.000000 2.000000 -726418.187500 0.000000 0.000000 
937.006309 -1168.754985 -108.006226 8909416.000000 7.000000 5.000000 -726503.062500 0.000000 0.000000 
-5620.702920 -374.178203 -14.801147 2523479.000000 7.000000 1.000000 -727110.375000 0.000000 1.000000 
-3583.143838 -1115.141216 -14.268799 4844214.000000 1.000000 1.000000 -726958.750000 0.000000 1.000000 
1442.424766 -290.533672 -14.709961 7146790.000000 1.000000 1.000000 -726784.125000 0.000000 1.000000 
-708.680703 -912.602214 -108.719482 8136982.000000 7.000000 1.000000 -726618.000000 0.000000 0.000000 
-4614.412393 -824.914714 -8.124023 3511657.000000 5.000000 1.000000 -727038.937500 0.000000 1.000000 
2475.033164 -914.049602 -107.524048 7337319.000000 7.000000 6.000000 -726753.562500 0.000000 0.000000 
2353.433555 -1466.418804 -34.956299 1349745.000000 1.000000 1.000000 -727318.687500 0.000000 0.000000 
4355.643516 -1464.021999 -14.455200 1376754.000000 1.000000 1.000000 -727310.312500 4.000000 1.000000 
501.412559 -273.207500 -5.117554 7348908.000000 1.000000 1.000000 -726750.750000 4.000000 1.000000 
1116.470664 -853.429119 -8.417969 1348177.000000 7.000000 4.000000 -727319.125000 0.000000 1.000000 
-1145.747109 -1081.771587 -13.266846 6775708.000000 1.000000 1.000000 -726829.062500 0.000000 1.000000 
332.739219 -1105.017986 -14.046265 1343898.000000 7.000000 5.000000 -727320.375000 0.000000 1.000000 
-4646.793496 -891.954082 -8.416870 6795666.000000 6.000000 3.000000 -726826.312500 0.000000 1.000000 
-682.750039 -1398.230602 -50.877197 351991.000000 7.000000 7.000000 -727550.375000 0.000000 0.000000 
-5241.215493 -967.865520 -107.618652 10504372.000000 7.000000 6.000000 -726309.812500 0.000000 0.000000 
4473.588828 -1161.956493 -15.460083 771056.000000 7.000000 6.000000 -727461.437500 0.000000 1.000000 
5764.099570 -368.721904 -16.208496 1994485.000000 1.000000 1.000000 -727179.625000 0.000000 1.000000 
-4579.548623 -502.409160 -107.847778 9721681.000000 7.000000 5.000000 -726394.125000 0.000000 0.000000 
2638.252891 -1255.401714 -78.719727 358706.000000 1.000000 1.000000 -727548.625000 0.000000 0.000000 
1432.989219 -1210.927410 -15.831421 1346982.000000 6.000000 1.000000 -727319.500000 0.000000 1.000000 
5544.288047 -1299.724987 -17.726563 1397589.000000 1.000000 1.000000 -727304.125000 2.000000 1.000000 
-2909.264688 -1195.589305 -16.456055 6982796.000000 3.000000 3.000000 -726803.125000 0.000000 1.000000 
-4859.976602 -1065.379009 -13.367798 6991211.000000 6.000000 5.000000 -726801.437500 0.000000 1.000000 
4352.356406 -1058.684795 -12.760376 1377395.000000 1.000000 1.000000 -727310.125000 2.000000 1.000000 
4708.642539 -1371.505901 -55.793091 570538.000000 5.000000 2.000000 -727505.000000 0.000000 0.000000 
-5597.624429 -939.589580 -9.016846 6993786.000000 7.000000 2.000000 -726800.937500 0.000000 1.000000 
-4510.765176 -491.696147 -92.107666 7775239.000000 1.000000 1.000000 -726676.937500 0.000000 0.000000 
-2431.429727 -426.314556 -17.677856 2925389.000000 2.000000 2.000000 -727078.562500 0.000000 1.000000 
-2099.200723 -983.009685 -108.720459 8730842.000000 7.000000 1.000000 -726527.625000 0.000000 0.000000 
665.301719 -593.709575 -106.927979 357511.000000 7.000000 7.000000 -727549.000000 0.000000 0.000000 
1468.632773 -766.065715 -10.158203 754678.000000 7.000000 2.000000 -727467.875000 0.000000 1.000000 
511.124473 -1377.984203 -16.370239 1739182.000000 3.000000 3.000000 -727227.937500 0.000000 1.000000 
-3677.999795 -511.784526 -107.227539 10297372.000000 7.000000 7.000000 -726331.562500 0.000000 0.000000 
-673.181680 -1389.532085 -51.264038 352037.000000 7.000000 7.000000 -727550.375000 0.000000 0.000000 
5791.494102 -1260.709697 -18.599243 3390126.000000 4.000000 4.000000 -727047.875000 0.000000 1.000000 
3842.798789 -1077.741924 -13.348755 3581536.000000 1.000000 1.000000 -727035.687500 0.000000 1.000000 
-4204.497842 -1047.091472 -108.409424 9330130.000000 7.000000 2.000000 -726444.250000 0.000000 0.000000 
408.765586 -821.882183 -9.178345 1742723.000000 5.000000 3.000000 -727226.875000 0.000000 1.000000 
-591.781777 -1291.934703 -17.231201 1142967.000000 7.000000 3.000000 -727369.937500 0.000000 1.000000 
-4695.905801 -1000.856792 -11.586060 5624002.000000 2.000000 2.000000 -726919.500000 0.000000 1.000000 
-5417.795815 -1119.675029 -14.400513 5819592.000000 5.000000 4.000000 -726904.812500 0.000000 1.000000 
5246.104453 -1352.988811 -16.488647 4744527.000000 4.000000 2.000000 -726964.250000 0.000000 1.000000 
-3604.460000 -1095.446025 -107.789551 7768247.000000 7.000000 5.000000 -726678.437500 0.000000 0.000000 
3884.373984 -1375.729686 -55.120972 562672.000000 7.000000 5.000000 -727507.500000 0.000000 0.000000 
-930.519570 -581.160869 -15.207520 7167548.000000 6.000000 3.000000 -726780.625000 0.000000 1.000000 
3561.518516 -643.801982 -13.843140 3378217.000000 1.000000 1.000000 -727049.500000 0.000000 1.000000 
-3880.718545 -383.813945 -16.522949 4460848.000000 1.000000 1.000000 -726977.687500 0.000000 1.000000 
-2737.408242 -1121.999980 -15.491577 1931320.000000 7.000000 7.000000 -727190.312500 0.000000 1.000000 
2094.513633 -1093.580120 -14.160400 1152170.000000 7.000000 7.000000 -727367.187500 0.000000 1.000000 
-241.021035 -473.900493 -18.080688 7161762.000000 1.000000 1.000000 -726782.187500 0.000000 1.000000 
4991.530234 -1191.682689 -16.493408 6337506.000000 6.000000 5.000000 -726868.437500 0.000000 1.000000 
-4205.131875 -695.526775 -11.360718 3315283.000000 5.000000 1.000000 -727051.500000 0.000000 1.000000 
-3292.383340 -394.730693 -59.403564 7574080.000000 5.000000 4.000000 -726710.375000 0.000000 0.000000 
-2691.347695 -1054.645000 -107.615356 8735396.000000 7.000000 6.000000 -726526.562500 0.000000 0.000000 
-5425.798135 -547.692485 -107.548096 8365649.000000 7.000000 6.000000 -726581.000000 0.000000 0.000000 
-3815.386514 -650.757915 -106.953491 7184786.000000 7.000000 7.000000 -726776.250000 0.000000 0.000000 
4268.288047 -630.752910 -14.254150 5937677.000000 1.000000 1.000000 -726896.312500 0.000000 1.000000 
-4806.697793 -303.198955 -14.501831 6994340.000000 5.000000 2.000000 -726800.812500 0.000000 1.000000 
2875.767539 -711.566204 -12.067383 1963808.000000 1.000000 1.000000 -727182.875000 1.000000 1.000000 
-5231.328530 -946.179424 -10.209839 4844945.000000 3.000000 3.000000 -726958.500000 0.000000 1.000000 
-4795.559365 -1048.857280 -108.407593 9917826.000000 7.000000 2.000000 -726371.437500 0.000000 0.000000 
-1142.212930 -1046.267314 -108.229858 7945990.000000 7.000000 3.000000 -726648.500000 0.000000 0.000000 
-5625.332803 -330.495952 -48.449951 7388196.000000 7.000000 7.000000 -726742.625000 0.000000 0.000000 
2160.371055 -469.291118 -72.087524 8706556.000000 7.000000 7.000000 -726532.812500 0.000000 0.000000 
5509.338828 -685.984172 -108.380493 7717879.000000 7.000000 4.000000 -726688.937500 0.000000 0.000000 
-4930.744668 -1285.452495 -16.841553 3311004.000000 6.000000 1.000000 -727052.500000 0.000000 0.000000 
-5009.652627 -998.405071 -107.602051 9530690.000000 7.000000 6.000000 -726417.625000 0.000000 0.000000 
1180.837852 -802.185894 -108.487061 8124701.000000 7.000000 2.000000 -726620.875000 0.000000 0.000000 
-5018.017373 -1038.984417 -108.722046 9725132.000000 7.000000 1.000000 -726393.375000 0.000000 0.000000 
3857.578086 -818.874919 -9.352783 1775299.000000 1.000000 1.000000 -727219.500000 2.000000 1.000000 
1466.683555 -911.889995 -8.546875 753804.000000 7.000000 3.000000 -727468.125000 0.000000 1.000000 
-1721.642129 -1406.625804 -15.668213 2327110.000000 4.000000 3.000000 -727130.875000 0.000000 1.000000 
2501.785117 -368.733745 -56.047852 9687047.000000 7.000000 4.000000 -726400.375000 0.000000 0.000000 
-3472.945596 -276.551494 -28.193115 9323734.000000 1.000000 1.000000 -726445.625000 4.000000 0.000000 
-3394.382607 -275.063945 -14.709961 10099801.000000 3.000000 2.000000 -726352.250000 0.000000 1.000000 
-499.977090 -1156.168712 -15.095459 1341643.000000 7.000000 4.000000 -727320.937500 0.000000 1.000000 
3869.532187 -1278.328105 -18.260132 964306.000000 3.000000 3.000000 -727416.625000 0.000000 1.000000 
-3944.898965 -651.469219 -107.246460 10299672.000000 7.000000 7.000000 -726331.125000 0.000000 0.000000 
4406.026328 -827.445598 -9.297974 3184832.000000 1.000000 1.000000 -727062.062500 0.000000 1.000000 
-4177.478799 -889.210674 -8.849731 1733057.000000 7.000000 6.000000 -727229.500000 0.000000 1.000000 
3420.180625 -1376.186687 -16.273926 5345798.000000 1.000000 1.000000 -726931.000000 0.000000 1.000000 
1334.848594 -633.327617 -14.131226 7148721.000000 1.000000 1.000000 -726783.812500 0.000000 1.000000 
-1221.436074 -701.150310 -11.929199 1540410.000000 7.000000 3.000000 -727271.625000 0.000000 1.000000 
-4505.888223 -1185.542797 -15.929688 3869608.000000 1.000000 1.000000 -727013.750000 0.000000 1.000000 
261.776816 -523.231548 -107.231812 8128978.000000 7.000000 7.000000 -726619.937500 0.000000 0.000000 
-3518.189980 -681.271404 -107.603638 8158924.000000 7.000000 6.000000 -726613.312500 0.000000 0.000000 
-5283.676431 -1058.463970 -107.247437 10115948.000000 7.000000 7.000000 -726348.687500 0.000000 0.000000 
-2691.382363 -1053.828411 -107.825195 8735396.000000 7.000000 5.000000 -726526.562500 0.000000 0.000000 
-1897.474648 -1012.902996 -107.842651 8534928.000000 7.000000 5.000000 -726557.187500 0.000000 0.000000 
-5474.501626 -414.082256 -16.678955 4457486.000000 6.000000 2.000000 -726978.250000 0.000000 0.000000 
347.728477 -658.091899 -108.721924 7934168.000000 7.000000 1.000000 -726651.562500 0.000000 0.000000 
545.259727 -1304.684093 -18.375854 1145130.000000 7.000000 7.000000 -727369.375000 0.000000 1.000000 
-952.686074 -561.820415 -15.894165 2931327.000000 1.000000 1.000000 -727077.687500 0.000000 1.000000 
3990.364219 -274.638774 -16.778687 10865292.000000 7.000000 2.000000 -726276.125000 0.000000 1.000000 
2685.175742 -975.514690 -10.637085 1758278.000000 1.000000 1.000000 -727222.375000 2.000000 1.000000 
-5535.875039 -1220.361095 -107.712646 7972212.000000 7.000000 6.000000 -726642.750000 0.000000 0.000000 
-4246.814004 -1056.983379 -107.839233 9524848.000000 7.000000 5.000000 -726418.812500 0.000000 0.000000 
1336.925742 -1353.503185 -16.664307 1942692.000000 1.000000 1.000000 -727186.937500 1.000000 1.000000 
5915.902305 -544.316143 -16.798096 6928650.000000 7.000000 6.000000 -726809.625000 0.000000 1.000000 
-4064.419473 -1263.846996 -16.760132 6987670.000000 5.000000 1.000000 -726802.125000 0.000000 1.000000 
-4220.872109 -1316.007396 -17.879883 2916554.000000 6.000000 5.000000 -727081.062500 0.000000 0.000000 
350.989707 -300.324321 -43.509033 9103811.000000 6.000000 3.000000 -726476.187500 0.000000 0.000000 
-2544.170449 -1067.282512 -12.795532 2525232.000000 4.000000 2.000000 -727109.812500 0.000000 1.000000 
1197.498984 -527.628154 -16.742554 2147944.000000 1.000000 1.000000 -727153.437500 0.000000 1.000000 
5171.546836 -1241.773296 -106.701416 7720593.000000 7.000000 7.000000 -726688.562500 0.000000 0.000000 
1679.243125 -530.591045 -108.408203 7340584.000000 7.000000 2.000000 -726752.750000 0.000000 0.000000 
-4946.920205 -1085.916484 -12.949707 2521548.000000 7.000000 3.000000 -727110.812500 0.000000 1.000000 
236.647422 -1158.714000 -106.841553 9303590.000000 7.000000 7.000000 -726449.437500 0.000000 0.000000 
-2652.243691 -718.537090 -107.230591 9512336.000000 7.000000 7.000000 -726421.875000 0.000000 0.000000 
-4740.783975 -518.254863 -107.180542 7971659.000000 7.000000 7.000000 -726642.875000 0.000000 0.000000 
-1270.858926 -965.478801 -10.561646 2529421.000000 1.000000 1.000000 -727108.687500 0.000000 1.000000 
-1272.547891 -743.998821 -107.229980 8724264.000000 7.000000 7.000000 -726529.187500 0.000000 0.000000 
-3536.167520 -276.598125 -35.105225 10100813.000000 1.000000 1.000000 -726352.125000 2.000000 0.000000 
3632.978477 -898.209392 -9.168945 764707.000000 7.000000 7.000000 -727464.125000 0.000000 1.000000 
-1197.639199 -273.117290 -9.629761 8916681.000000 1.000000 1.000000 -726501.625000 1.000000 1.000000 
-3188.350869 -1320.365490 -16.134644 2325037.000000 7.000000 1.000000 -727131.500000 0.000000 1.000000 
1914.355430 -789.816204 -108.844849 7730297.000000 7.000000 1.000000 -726686.750000 0.000000 0.000000 
1124.791953 -456.251079 -69.486694 8514367.000000 6.000000 6.000000 -726561.875000 0.000000 0.000000 
2867.243125 -608.187114 -107.522217 7334099.000000 7.000000 6.000000 -726754.187500 0.000000 0.000000 
-997.664590 -438.274639 -66.368286 9696981.000000 6.000000 6.000000 -726398.875000 0.000000 0.000000 
-2314.074258 -990.291973 -107.178955 9901037.000000 7.000000 7.000000 -726374.812500 0.000000 0.000000 
-3489.900674 -707.642986 -11.055542 2920925.000000 5.000000 1.000000 -727079.687500 0.000000 1.000000 
-5677.065957 -501.725444 -16.214355 5237600.000000 4.000000 1.000000 -726939.625000 0.000000 0.000000 
5742.915000 -1420.466396 -15.324951 995911.000000 1.000000 1.000000 -727404.500000 1.000000 1.000000 
4131.675742 -975.729778 -10.682617 5940299.000000 1.000000 1.000000 -726895.750000 0.000000 1.000000 
5244.369102 -1223.661815 -17.216675 4743745.000000 4.000000 4.000000 -726964.625000 0.000000 1.000000 
-1141.395059 -443.366680 -17.943848 1541836.000000 7.000000 5.000000 -727271.187500 0.000000 1.000000 
-2103.400430 -815.291606 -108.020996 7564742.000000 7.000000 4.000000 -726712.250000 0.000000 0.000000 
-3937.057412 -475.930156 -18.625854 2130040.000000 7.000000 6.000000 -727158.062500 0.000000 1.000000 
-861.789102 -1150.623210 -15.060059 2331206.000000 1.000000 1.000000 -727129.812500 0.000000 1.000000 
2735.383750 -946.182903 -9.816162 1157277.000000 4.000000 2.000000 -727365.187500 0.000000 1.000000 
-867.506387 -855.360820 -108.230713 8332528.000000 7.000000 3.000000 -726587.562500 0.000000 0.000000 
-419.138711 -503.242534 -107.674561 7357373.000000 6.000000 5.000000 -726748.875000 0.000000 0.000000 
-3124.732217 -974.404827 -108.229370 9321850.000000 7.000000 3.000000 -726446.000000 0.000000 0.000000 
-2389.523477 -661.376628 -12.230225 2329776.000000 6.000000 1.000000 -727130.187500 0.000000 1.000000 
1067.686973 -566.663188 -15.809692 1946967.000000 1.000000 1.000000 -727185.750000 0.000000 1.000000 
-540.160684 -1025.182170 -107.599976 7746994.000000 7.000000 6.000000 -726682.812500 0.000000 0.000000 
-4412.784219 -1098.155071 -14.010742 6012748.000000 2.000000 2.000000 -726893.250000 0.000000 1.000000 
-2014.390664 -881.449382 -8.848877 1735865.000000 7.000000 6.000000 -727228.812500 0.000000 1.000000 
5700.133750 -966.161174 -108.381470 7522103.000000 7.000000 4.000000 -726722.312500 0.000000 0.000000 
-3428.109170 -915.810527 -8.072754 2722112.000000 6.000000 1.000000 -727094.125000 0.000000 1.000000 
-2853.775918 -572.604839 -107.766602 10488043.000000 7.000000 5.000000 -726313.125000 0.000000 0.000000 
-1888.271523 -599.877056 -13.899048 2529557.000000 4.000000 1.000000 -727108.625000 0.000000 1.000000 
-3893.194375 -821.580791 -8.211060 3117391.000000 5.000000 1.000000 -727065.562500 0.000000 1.000000 
-4422.683389 -1259.815105 -16.685181 3311925.000000 5.000000 1.000000 -727052.312500 0.000000 1.000000 
2422.169883 -590.150005 -15.676880 958415.000000 7.000000 7.000000 -727418.437500 0.000000 1.000000 
-498.451211 -1344.363689 -60.688354 352405.000000 7.000000 7.000000 -727550.375000 0.000000 0.000000 
-3473.248818 -1041.460186 -12.390259 4456848.000000 1.000000 1.000000 -726978.437500 0.000000 1.000000 
-5294.310952 -944.611309 -9.074341 2916828.000000 7.000000 2.000000 -727081.000000 0.000000 1.000000 
-505.253945 -1342.727611 -60.248169 352405.000000 7.000000 7.000000 -727550.375000 0.000000 0.000000 
4847.057578 -375.783428 -57.111450 7325682.000000 7.000000 4.000000 -726755.562500 0.000000 0.000000 
4387.654258 -359.825786 -16.085693 2183365.000000 1.000000 1.000000 -727150.437500 1.000000 1.000000 
-4327.526406 -469.258159 -72.579834 10107575.000000 1.000000 1.000000 -726350.562500 0.000000 0.000000 
-3523.978799 -527.825298 -107.789307 10881895.000000 7.000000 5.000000 -726270.750000 0.000000 0.000000 
-3657.524941 -1306.005504 -18.268677 1929433.000000 7.000000 6.000000 -727190.812500 0.000000 1.000000 
-2613.079629 -598.004863 -107.229980 7568974.000000 7.000000 7.000000 -726711.312500 0.000000 0.000000 
4132.394492 -1022.240886 -11.880249 6339210.000000 3.000000 2.000000 -726868.062500 0.000000 1.000000 
1133.176719 -666.441326 -12.647705 952480.000000 7.000000 3.000000 -727420.500000 0.000000 1.000000 
-4339.538857 -276.521343 -34.002930 9719380.000000 1.000000 1.000000 -726394.625000 4.000000 0.000000 
5179.646445 -1172.949291 -15.724487 6138004.000000 5.000000 4.000000 -726882.687500 0.000000 1.000000 
4282.072227 -575.654644 -15.768555 3940816.000000 3.000000 3.000000 -727010.562500 0.000000 1.000000 
-1334.521035 -796.576824 -108.846802 9504655.000000 7.000000 1.000000 -726423.250000 0.000000 0.000000 
498.167930 -660.567974 -13.002319 1744149.000000 5.000000 2.000000 -727226.437500 0.000000 1.000000 
-4831.501504 -963.022991 -107.616699 9334960.000000 7.000000 6.000000 -726443.250000 0.000000 0.000000 
-994.384805 -825.336711 -8.003540 946867.000000 7.000000 2.000000 -727422.250000 0.000000 1.000000 
-580.982949 -869.505718 -108.594238 9892942.000000 7.000000 3.000000 -726376.187500 0.000000 0.000000 
-249.328652 -496.548076 -107.706299 9107307.000000 2.000000 1.000000 -726475.500000 0.000000 0.000000 
3396.710898 -628.709697 -14.229736 4537440.000000 1.000000 1.000000 -726976.937500 0.000000 1.000000 
-2605.525918 -512.521709 -108.019531 9705996.000000 7.000000 4.000000 -726397.250000 0.000000 0.000000 
2283.422812 -688.521099 -106.505737 9492145.000000 7.000000 7.000000 -726425.437500 0.000000 0.000000 
-474.881387 -1010.481121 -10.324463 1144623.000000 7.000000 1.000000 -727369.562500 0.000000 1.000000 
-5425.036660 -550.155498 -14.947144 6799345.000000 6.000000 1.000000 -726825.562500 0.000000 1.000000 
-1768.151895 -433.810161 -17.908203 2332583.000000 5.000000 4.000000 -727129.437500 0.000000 1.000000 
3015.125937 -1016.062603 -11.893066 959014.000000 7.000000 6.000000 -727418.250000 0.000000 1.000000 
1551.558555 -1394.759502 -16.095581 1943935.000000 3.000000 3.000000 -727186.562500 0.000000 1.000000 
